# .PCD v0.7 - Point Cloud Data file format
VERSION 0.7
FIELDS x y z
SIZE 4 4 4
TYPE F F F
COUNT 1 1 1
WIDTH 1608
HEIGHT 1
VIEWPOINT 0 0 0 1 0 0 0
POINTS 1608
DATA ascii
11.306919 6.2006807 27.519394
11.221334 7.2790513 26.610077
11.030689 7.8320713 25.899117
10.833916 8.3299236 25.217161
10.609438 8.6854649 24.590197
10.363008 8.9329338 24.003471
10.115604 9.1646099 23.426352
9.8643341 9.3702278 22.861309
9.608202 9.5477467 22.308142
9.3328991 9.6452703 21.779888
9.0587082 9.7426186 21.253613
8.7855177 9.8393955 20.729408
8.5107546 9.9265785 20.209406
8.231842 9.9958639 19.69521
7.9408855 10.021646 19.191866
7.6535406 10.058379 18.686754
7.3666143 10.095057 18.182383
7.0912652 10.167258 17.672052
6.8011899 10.190681 17.171854
6.5068679 10.200206 16.674458
6.2197499 10.23113 16.173855
5.9330568 10.262214 15.673848
5.6316419 10.24935 15.180544
5.3234286 10.21746 14.689434
5.0147486 10.185325 14.19772
4.7056007 10.152956 13.705391
4.3672214 10.042015 13.220194
4.0253191 9.9251719 12.733322
3.6831203 9.8112078 12.243908
3.3115878 9.6245785 11.757256
2.8998134 9.3406935 11.272663
2.4898143 9.069787 10.781803
1.9255323 8.4238968 10.300348
11.444006 5.7724094 26.755093
11.352304 6.8493714 25.862255
11.178387 7.4949141 25.128788
10.96847 7.9473991 24.467962
10.748083 8.3316555 23.836563
10.508189 8.614789 23.242128
10.253529 8.8236065 22.674141
9.9957514 9.0100431 22.116333
9.7385235 9.1899862 21.563904
9.4824572 9.3662214 21.015959
9.2065229 9.460392 20.49128
8.9297781 9.5475273 19.970085
8.6539841 9.6343632 19.45068
8.3845329 9.7398243 18.92905
8.1103649 9.8247986 18.413635
7.8279657 9.8786869 17.905859
7.5534897 9.9566154 17.394772
7.2798634 10.034298 16.885269
7.0125751 10.129185 16.374512
6.7260017 10.16047 15.875307
6.439723 10.191517 15.376756
6.158329 10.236142 14.87702
5.8777733 10.281676 14.378056
5.5762959 10.264931 13.887007
5.2692242 10.232794 13.397209
4.9649239 10.209495 12.905958
4.6638494 10.195865 12.413442
4.331614 10.098059 11.926817
3.9925601 9.9851284 11.439219
3.6522007 9.872282 10.949386
3.3006785 9.7339869 10.458431
2.9157572 9.5146618 9.9674768
2.5437572 9.334343 9.4712601
2.1155758 9.0201883 8.9733486
1.5862241 8.4682159 8.4701948
11.443127 6.2198052 25.169735
11.304192 7.0513506 24.386448
11.087802 7.4895382 23.735022
10.859102 7.850975 23.113991
10.629589 8.1906719 22.506029
10.384982 8.4506311 21.92581
10.124598 8.6337986 21.370235
9.8660469 8.8156786 20.818571
9.6067657 8.986372 20.273111
9.3483934 9.152854 19.73196
9.0763807 9.261342 19.206549
8.8056879 9.369976 18.683237
8.5361462 9.4781475 18.162155
8.2795982 9.6271658 17.63563
8.0158739 9.7456684 17.117392
7.7433162 9.8298912 16.607168
7.4773588 9.9325361 16.095726
7.2125468 10.034962 15.58634
6.9463148 10.129073 15.080101
6.6655469 10.174622 14.58185
6.3852873 10.220085 14.084503
6.1055388 10.265465 13.588064
5.8268967 10.312529 13.092351
5.528266 10.300182 12.602735
5.2290068 10.28646 12.112983
4.9296532 10.272925 11.622949
4.6300654 10.259186 11.13266
4.3049545 10.176788 10.645377
3.9795074 10.096095 10.156403
3.6677392 10.053772 9.664773
3.3568218 10.014946 9.1722422
2.9958248 9.8498516 8.6800022
2.6281178 9.672822 8.184495
2.2577357 9.4943428 7.6854906
1.7981472 9.1037855 7.1784849
1.2548952 8.5234671 6.6579094
11.392214 4.8850265 24.67263
11.353121 6.2355323 23.743164
11.179404 6.8945947 23.031797
10.964056 7.3327694 22.392395
10.724759 7.6440887 21.794256
10.488264 7.9517612 21.203121
10.25396 8.2535267 20.619419
9.990799 8.4241314 20.071554
9.7293644 8.5936222 19.527279
9.4748945 8.7823277 18.982319
9.2238026 8.97542 18.440182
8.9633675 9.1255817 17.909943
8.705801 9.2797413 17.381926
8.4498453 9.4331779 16.857059
8.2015018 9.6067762 16.33198
7.942235 9.7362967 15.8169
7.6767225 9.8399134 15.307985
7.4164786 9.9567652 14.799384
7.1574388 10.073077 14.293135
6.8899336 10.158436 13.792584
6.6104183 10.203555 13.297764
6.3353353 10.260525 12.80275
6.062645 10.322632 12.308435
5.787643 10.375824 11.815973
5.4901495 10.362394 11.328657
5.1944871 10.354599 10.840786
4.9058609 10.366676 10.351925
4.6237602 10.396254 9.8627415
4.3241286 10.377577 9.3752184
4.0168629 10.339204 8.8875742
3.709197 10.300966 8.3991756
3.4011364 10.262869 7.9100304
3.0738411 10.177084 7.4193392
2.7102432 10.003037 6.9246187
2.3277848 9.7875566 6.4249754
1.9230657 9.5241518 5.9188957
1.2972269 8.738553 5.3784113
11.228775 4.5610547 23.312334
11.209108 5.9946327 22.395462
11.016937 6.5652561 21.723215
10.821432 7.0914021 21.072842
10.58121 7.3973751 20.483706
10.340837 7.6875658 19.904049
10.104279 7.9794846 19.329687
9.8604851 8.228549 18.769691
9.6062307 8.4250488 18.224678
9.3656187 8.6651115 17.675537
9.1300735 8.9136524 17.129618
8.8785009 9.0925732 16.599911
8.6298018 9.2742996 16.073267
8.382865 9.4547386 15.550354
8.1404476 9.6434851 15.029852
7.8816566 9.7693367 14.520842
7.6215887 9.8860598 14.015333
7.3627243 10.002243 13.512165
7.1065221 10.122595 13.010862
6.840909 10.209013 12.514799
6.5683136 10.270813 12.022278
6.2964535 10.33265 11.530962
6.0252666 10.394333 11.040861
5.7556119 10.45838 10.551856
5.4696512 10.473448 10.065878
5.1949291 10.519753 9.5793676
4.9207168 10.565973 9.0937605
4.6470151 10.612109 8.6090555
4.3597765 10.620363 8.1251478
4.0552373 10.582517 7.6408291
3.7502282 10.544608 7.1557665
3.4412246 10.497576 6.669673
3.1204829 10.422216 6.1814795
2.728725 10.171902 5.6827993
2.3162062 9.8777523 5.1765451
1.8460855 9.4523268 4.6552277
1.1687036 8.5434856 4.0865364
10.99454 5.4263368 21.123144
10.840401 6.1740952 20.422329
10.646385 6.7076316 19.782204
10.432755 7.1301332 19.175291
10.201653 7.458724 18.594999
9.9767361 7.7969494 18.019299
9.7554264 8.1338177 17.450417
9.5164413 8.3863029 16.902161
9.2859888 8.6601276 16.355461
9.0603685 8.9400654 15.813188
8.8116951 9.1237898 15.289598
8.5688496 9.3207083 14.767891
8.3278713 9.5161133 14.250195
8.0855064 9.6989164 13.737667
7.8256164 9.8155098 13.235229
7.571209 9.9457178 12.733849
7.3190165 10.078186 12.234818
7.068212 10.210155 11.738398
6.7993817 10.281012 11.248205
6.531374 10.351865 10.759386
6.2687979 10.436584 10.271391
6.0141101 10.541746 9.7844095
5.7587919 10.641497 9.2995892
5.4857945 10.687314 8.8173122
5.2133694 10.733232 8.3359318
4.9413786 10.778878 7.8554382
4.6698899 10.824439 7.3758278
4.3947411 10.858747 6.8967972
4.0823083 10.793503 6.414712
3.7650261 10.717616 5.9308577
3.4295316 10.597319 5.4430084
3.0873744 10.463739 4.9519348
2.6613932 10.125439 4.4426517
2.2265148 9.774991 3.9257498
1.6980414 9.2080841 3.3813162
10.657406 5.7566423 19.117359
10.479479 6.3620062 18.475292
10.309065 6.96943 17.844572
10.097647 7.3766952 17.259726
9.8906431 7.7826767 16.68297
9.6774473 8.1453152 16.12063
9.4488068 8.4316311 15.576099
9.2255325 8.7256966 15.03609
8.9993181 8.9961329 14.504663
8.7560863 9.1932707 13.986703
8.5147219 9.3888931 13.472716
8.2771358 9.5897741 12.962029
8.0355473 9.7689753 12.457041
7.7822819 9.9020538 11.95891
7.5302939 10.034241 11.463417
7.279686 10.165926 10.970511
7.0357518 10.313901 10.479434
6.775485 10.405725 9.9931746
6.5240016 10.521128 9.5081015
6.2736197 10.635807 9.0252781
6.0244532 10.75015 8.5446711
5.7723379 10.852076 8.0662365
5.5015402 10.897329 7.5889997
5.231307 10.942682 7.1126461
4.9582386 10.97876 6.6368618
4.678184 10.99471 6.1609163
4.3893423 10.986645 5.6840277
4.0583301 10.867737 5.2000999
3.7138796 10.717533 4.7116299
3.3645597 10.559346 4.2195978
2.997961 10.362261 3.7209616
2.5691013 10.016293 3.2035036
2.1223469 9.6363773 2.6755877
10.418234 5.0918484 17.844852
10.371775 6.2755876 17.118792
10.224716 6.9748521 16.490496
10.026941 7.4308233 15.910969
9.8325291 7.8790464 15.341291
9.6169262 8.2231312 14.793351
9.394803 8.5266714 14.256756
9.1749325 8.8254633 13.726521
8.94275 9.065979 13.207691
8.7056503 9.2786427 12.695928
8.4711323 9.4917278 12.188236
8.2386284 9.7032347 11.684767
7.9920907 9.8586559 11.188633
7.743979 10.002813 10.696052
7.50071 10.157366 10.205843
7.2666426 10.335743 9.7179203
7.0303702 10.50065 9.2337036
6.7797475 10.615172 8.7531719
6.5302138 10.728979 8.274847
6.2818241 10.842266 7.7987165
6.0346327 10.955219 7.3247643
5.7856684 11.059272 6.8527327
5.5083275 11.079209 6.3794899
5.2285509 11.091686 5.9062757
4.9366078 11.070268 5.4313517
4.6407604 11.038945 4.9553442
4.3291187 10.96645 4.4755707
3.984859 10.810463 3.9871712
3.638411 10.653482 3.4956675
3.2892299 10.494167 3.0008888
2.8710339 10.166065 2.4835463
2.3212566 9.5214844 1.9202747
10.359707 5.2329717 16.429594
10.31551 6.4093986 15.737861
10.166231 7.0863094 15.133389
9.9767551 7.5659313 14.565562
9.7872334 8.0231524 14.009424
9.5640125 8.327445 13.477455
9.3454046 8.6359749 12.950952
9.1333666 8.9558058 12.429461
8.8993101 9.1811771 11.920893
8.6644363 9.3942566 11.417419
8.4320183 9.607338 10.918039
8.2079792 9.8408794 10.421879
7.966754 10.007071 9.9324512
7.7330804 10.191983 9.4457779
7.5011797 10.375729 8.9626713
7.270977 10.558132 8.4831018
7.0326271 10.70833 8.0068712
6.7839427 10.821276 7.5329838
6.5364499 10.933891 7.0612564
6.2864065 11.035031 6.5913048
6.0319481 11.119831 6.1225805
5.7668314 11.171089 5.6537094
5.476716 11.149823 5.1812687
5.1771798 11.10297 4.7065649
4.8753786 11.051383 4.2305737
4.5729427 10.999689 3.753581
4.2526073 10.901958 3.270936
3.9041719 10.733557 2.7785797
3.5185709 10.47423 2.2720356
3.0239353 9.9451923 1.7254333
10.398716 5.7975302 14.979806
10.291271 6.6757326 14.358988
10.121647 7.2517042 13.786529
9.9338236 7.7263317 13.234709
9.7382164 8.1481476 12.696475
9.5223913 8.4721851 12.173719
9.3094463 8.7930222 11.657374
9.0922184 9.0840931 11.148861
8.8612261 9.3126431 10.648849
8.6350403 9.5489902 10.152927
8.419817 9.8142834 9.6607199
8.1986637 10.048701 9.17416
7.9652801 10.232792 8.692524
7.7335439 10.415349 8.2144051
7.5035563 10.596762 7.7397785
7.2751789 10.776674 7.268589
7.0348482 10.912706 6.7995443
6.7797518 10.998533 6.3311357
6.5232768 11.077219 5.8640232
6.2586193 11.128923 5.396841
5.9908581 11.169836 4.9299145
5.7082319 11.166704 4.4603596
5.4085364 11.115452 3.9865551
5.1082134 11.064091 3.5117588
4.8072596 11.012621 3.0359669
4.4924302 10.92536 2.5550461
4.0998993 10.634621 2.0469418
3.6239712 10.134676 1.5050449
2.8346086 8.8425732 0.83909416
10.380631 6.1020908 13.594337
10.269183 6.9448023 13.003423
10.087341 7.4549732 12.455034
9.9089489 7.9554625 11.917049
9.6991892 8.3088217 11.397509
9.4863911 8.6347141 10.886106
9.2831106 8.9825783 10.380011
9.0678101 9.2710114 9.8824463
8.8507719 9.5411377 9.3907871
8.6360264 9.8084126 8.9043198
8.4235325 10.07288 8.4229584
8.1952744 10.273032 7.9462357
7.9638262 10.454788 7.4730387
7.7340026 10.635044 7.0032721
7.5015759 10.800217 6.536417
7.2666712 10.951525 6.0720968
7.0077276 11.022497 5.6063271
6.7432785 11.074119 5.1406803
6.4709539 11.100257 4.6741571
6.1982965 11.124529 4.2079763
5.925909 11.148774 3.74226
5.6381407 11.128203 3.2724485
5.3137422 11.00514 2.7908478
4.8416634 10.476687 2.2579613
4.5155087 10.362846 1.7689991
4.1570449 10.165708 1.2662239
3.2637291 8.5595264 0.54926682
10.385374 5.1392102 12.850923
10.384232 6.4934549 12.227831
10.242329 7.1873765 11.672987
10.062243 7.6910276 11.141768
9.8809071 8.1664734 10.621403
9.673893 8.5193243 10.114466
9.4801044 8.9076529 9.6133013
9.2830391 9.2669277 9.1200018
9.0656691 9.5360737 8.6341963
8.8506384 9.8025837 8.1534996
8.637804 10.066114 7.6778307
8.4231548 10.312902 7.2068157
8.1912251 10.491242 6.7383938
7.9536347 10.643867 6.2723303
7.7146692 10.786276 5.8086586
7.4701309 10.905525 5.346324
7.2213635 11.0071 4.8850441
6.948741 11.031007 4.4196243
6.6764431 11.055072 3.9546738
6.4044724 11.079295 3.4901943
6.1328306 11.103679 3.0261936
5.6300168 10.456843 2.4847174
5.0617528 9.6443357 1.9101334
4.6871495 9.4014645 1.3970833
4.3549814 9.2834892 0.89748001
10.491327 5.9981027 11.447353
10.399154 6.9253464 10.888676
10.22761 7.4750395 10.362608
10.067158 8.0446253 9.846343
9.8765507 8.4674072 9.3439293
9.6818295 8.8552456 8.849925
9.4901085 9.2377129 8.3632698
9.2790298 9.5312443 7.8831911
9.0636196 9.7966051 7.4081955
8.8504524 10.059202 6.9381485
8.6340961 10.300038 6.47229
8.4051571 10.487905 6.0085964
8.1596155 10.612241 5.5449743
7.9136286 10.730396 5.0833101
7.6610126 10.822521 4.6219645
7.4093356 10.914304 4.1623363
7.15236 10.986126 3.7025948
6.8808088 11.010329 3.2393532
6.6063895 11.024986 2.7755032
5.9702158 9.9580889 2.1810474
5.3673272 9.0245934 1.5838089
4.8639555 8.4093723 1.0134373
4.5270591 8.2874079 0.5051136
10.507384 5.0833621 10.676553
10.530651 6.5502443 10.10646
10.410669 7.3340893 9.58109
10.254648 7.9305573 9.0734243
10.078131 8.4159784 8.5776825
9.8824406 8.803134 8.0907707
9.689806 9.185133 7.6110935
9.4908209 9.5264473 7.1377192
9.2731924 9.7837687 6.668128
9.0517883 10.016649 6.2023897
8.8281584 10.232134 5.74016
8.6009045 10.426344 5.2807217
8.3527956 10.541215 4.8194494
8.0993528 10.633698 4.3585806
7.8468533 10.725835 3.8994274
7.5952892 10.817629 3.4419756
7.3442011 10.907619 2.986064
7.0722666 10.929055 2.5238619
6.3401546 9.5316772 1.8834839
5.6981902 8.4551992 1.2601757
5.1056972 7.5623059 0.64313507
10.69579 6.3188772 9.3162899
10.599487 7.2202616 8.8010387
10.441537 7.8168535 8.3029671
10.278589 8.3648396 7.81569
10.081944 8.7513065 7.335804
9.8883572 9.1326408 6.8630371
9.6904373 9.4805355 6.396204
9.4708004 9.7312336 5.9314213
9.2396259 9.928607 5.4683886
9.0085907 10.118411 5.0085669
8.7730436 10.28451 4.5505543
8.5377789 10.445049 4.0951967
8.2844515 10.537537 3.6365128
8.0320721 10.629687 3.1795406
7.7771091 10.709897 2.7229595
7.5033903 10.72646 2.2601604
6.9907575 9.9826851 1.6983109
6.0552411 7.944006 0.9411068
10.860912 6.0863791 8.5252838
10.787742 7.1070127 8.0235033
10.627834 7.7035084 7.5349693
10.471382 8.2863474 7.0572796
10.276732 8.6848631 6.5845051
10.073713 9.0316696 6.1170187
9.8667698 9.347702 5.6544476
9.6529312 9.6234961 5.1953545
9.4152641 9.7977724 4.7343187
9.1778011 9.9655657 4.2760324
8.9418573 10.132053 3.8207684
8.7075272 10.297629 3.3685303
8.4676514 10.437465 2.9166298
8.202569 10.486001 2.4566841
7.9149446 10.457294 1.9879055
7.5913258 10.311428 1.5027218
6.4444218 7.5160818 0.63109398
11.025931 5.8523054 7.7333889
10.962113 6.9342928 7.2473478
10.813067 7.5884609 6.769352
10.644249 8.1264057 6.2991781
10.458424 8.5678825 5.8345022
10.244358 8.8735332 5.3704128
10.028782 9.1594563 4.9107256
9.8108788 9.4237556 4.4547472
9.5846777 9.6449413 4.0000658
9.3468189 9.8131256 3.5445461
9.1104813 9.9800005 3.0920258
8.8703594 10.126517 2.640337
8.6087208 10.191341 2.1814461
8.3163319 10.147271 1.7095089
7.9680099 9.9150057 1.2103653
7.5300989 9.3929663 0.66356087
11.140417 5.3791022 6.9348097
11.112438 6.6522141 6.4682846
10.981496 7.4011416 6.0030022
10.799114 7.8890986 5.5380459
10.618484 8.3613281 5.081193
10.40218 8.6631508 4.6210766
10.181038 8.9316006 4.1639004
9.9621897 9.1972752 3.7114639
9.7455978 9.460207 3.2636938
9.5132513 9.6519728 2.8131371
9.2599869 9.7577219 2.3560734
8.9811869 9.765852 1.8886395
8.6695261 9.6559639 1.4053535
8.2946987 9.3285971 0.88849831
11.234329 6.2341623 5.6803389
11.129794 7.1224651 5.2316961
10.93686 7.5742021 4.770546
10.744624 8.0072212 4.3163376
10.555429 8.4327736 3.8695126
10.333328 8.70263 3.4159174
10.112804 8.9667692 2.9667215
9.8835316 9.1846943 2.5172167
9.6319599 9.3069687 2.0600853
9.3446131 9.2885504 1.5867786
9.0011845 9.0627975 1.0840263
8.518034 8.3381443 0.50246429
11.296146 5.5219908 4.8679047
11.202201 6.4887657 4.4327555
11.065626 7.2143974 3.9960203
10.871687 7.6515217 3.5467854
10.680874 8.0812931 3.1048784
10.481243 8.4539623 2.6647282
10.232068 8.6060181 2.2055511
9.956563 8.645462 1.7349262
8.862649 5.465024 0.82775116
11.271301 5.8232965 3.6187801
11.150229 6.6452765 3.1970692
10.896465 6.8307829 2.7244339
10.458051 6.1982164 2.1628265
10.083341 5.8680315 1.6265221
9.7040749 5.5340047 1.0836449
9.3201151 5.1958466 0.5340538
11.173573 5.7753134 2.3550434
10.909679 5.9347229 1.875761
10.537088 5.6016536 1.3369427
7.829896 7.4184027 38.194572
7.3503299 7.8134584 38.52985
6.9436264 8.0157566 38.970135
6.5666437 8.1394958 39.453175
8.3787651 7.020936 36.276836
7.7184505 7.8989325 36.370281
7.3871336 7.8926468 36.929787
6.9863749 8.0828533 37.379631
6.6100984 8.2094269 37.86166
6.2697425 8.2351723 38.399487
5.9314089 8.2558451 38.939758
5.6317472 8.1592445 39.550114
9.3617058 8.1014204 31.971033
9.1782494 7.7257171 32.697578
7.7923269 6.9482069 35.878555
7.2210112 7.6062312 36.09404
6.6509242 8.2847481 36.284531
6.3089767 8.3205738 36.814423
5.976438 8.3296947 37.358543
5.6648722 8.2753859 37.938732
5.3576021 8.2056179 38.529068
5.0648413 8.0871592 39.14975
10.006459 9.0544682 28.439259
9.4699135 9.5711422 28.769115
9.0806684 9.7412014 29.232162
8.7031631 9.8872728 29.701843
8.3470688 9.9836197 30.190165
8.0624151 9.8985872 30.757584
7.8012161 9.7491455 31.356285
7.5492253 9.5700607 31.972027
7.3317556 9.2910595 32.639397
7.1623335 8.8695192 33.382416
7.0467477 8.2815542 34.217545
6.863698 7.8654842 34.977303
6.5428748 7.8358898 35.544445
6.1642761 7.9768567 36.02153
5.6599617 8.5039272 36.286293
5.4001217 8.2967882 36.94577
5.1056566 8.1904297 37.552856
4.8249726 8.0354633 38.190071
4.547823 7.8624802 38.84108
4.3028722 7.5743337 39.564255
10.481483 8.8125658 26.527168
9.8136902 9.6325445 26.766491
9.3815527 9.9075241 27.193802
8.9539185 10.179951 27.616325
8.5494995 10.403025 28.05275
8.2147999 10.456509 28.553684
7.8926659 10.479363 29.066313
7.5778866 10.483725 29.586391
7.2793188 10.445072 30.12529
7.0118856 10.320808 30.703522
6.7754335 10.106903 31.325645
6.5473394 9.862009 31.966858
6.3453817 9.5337429 32.653351
6.1790547 9.0899248 33.403599
6.0477576 8.5258923 34.223564
5.8713436 8.0764866 34.996582
5.5997839 7.9022036 35.634998
5.254694 7.95156 36.157654
4.8078313 8.3283968 36.500957
4.5837717 7.9934978 37.231365
4.3281078 7.749876 37.917183
4.070796 7.5013967 38.610916
3.8436763 7.1370182 39.377846
10.431771 9.0421886 24.998491
9.7955437 9.7919006 25.280117
9.3447132 10.116954 25.693909
8.9119301 10.407785 26.113173
8.5264225 10.590057 26.566425
8.1802654 10.678644 27.051414
7.8352633 10.767119 27.534599
7.4958658 10.843867 28.020624
7.1792836 10.862613 28.528881
6.8958778 10.792457 29.0742
6.6193523 10.700995 29.630188
6.3541846 10.574614 30.203526
6.1009951 10.409655 30.796976
5.8685789 10.178577 31.424494
5.6623511 9.861742 32.097458
5.4853582 9.4451485 32.82534
5.3465967 8.8955078 33.627724
5.2144632 8.3036575 34.462914
5.0503244 7.7900767 35.270138
4.7605834 7.6636086 35.884529
4.3484802 7.9376516 36.286758
4.1069064 7.6458178 36.992668
3.872618 7.3161077 37.725792
3.6495166 6.9321871 38.496582
3.4695811 6.3747177 39.37574
10.607811 8.7423115 23.653234
9.8778419 9.7113562 23.888916
9.40658 10.086782 24.294376
8.942194 10.456868 24.693787
8.5357418 10.69465 25.130579
8.1752052 10.824167 25.600445
7.8235741 10.93502 26.074364
7.4824142 11.022216 26.554781
7.1628962 11.055037 27.054176
6.8612247 11.04095 27.571318
6.5646095 11.012546 28.094524
6.2738142 10.966951 28.625439
5.9932699 10.890701 29.1703
5.7361932 10.744013 29.74736
5.4977794 10.537134 30.354252
5.270185 10.290155 30.983707
5.0616531 9.975646 31.649765
4.8594508 9.6292496 32.337555
4.7099752 9.1020126 33.120552
4.6127028 8.384676 34.009003
4.5126605 7.6468987 34.922764
4.2983661 7.2630763 35.66861
4.002924 7.1420922 36.283596
3.6716428 7.1418586 36.836067
3.4809666 6.6358643 37.666237
3.358556 5.8554316 38.660477
10.165301 9.1447716 22.641918
9.5516472 9.8559637 22.96347
9.0684948 10.270561 23.359987
8.6127386 10.630114 23.765121
8.2336054 10.80826 24.221436
7.8603373 10.977089 24.677158
7.4980764 11.122799 25.137337
7.1685801 11.186861 25.623419
6.8622808 11.190847 26.130077
6.5625329 11.177093 26.643314
6.2627645 11.162931 27.156984
5.9628921 11.148561 27.671036
5.6897821 11.056767 28.216831
5.4275489 10.929805 28.779177
5.175106 10.768965 29.358614
4.9299517 10.579915 29.953724
4.6929617 10.358313 30.567326
4.4918962 10.014649 31.241425
4.306026 9.6083031 31.952009
4.1409473 9.117074 32.711651
4.0415401 8.3851433 33.599205
3.9895508 7.4596367 34.598618
3.8946171 6.6441078 35.561157
3.6362326 6.3769655 36.255341
3.3176823 6.3177752 36.844727
10.621029 8.1825085 21.475777
9.7855911 9.4123001 21.687635
9.2558775 9.9356003 22.068201
8.7669144 10.374287 22.462078
8.3474598 10.652306 22.894356
7.9597855 10.858137 23.342964
7.5762472 11.059874 23.788616
7.2225037 11.189813 24.253532
6.897543 11.247097 24.740227
6.5825739 11.279154 25.234493
6.2717295 11.300898 25.731785
5.9701447 11.29734 26.237932
5.6917396 11.227293 26.769281
5.4201055 11.134975 27.310726
5.147377 11.042512 27.854137
4.8835659 10.919617 28.411901
4.6236663 10.779966 28.979233
4.3868103 10.562488 29.582878
4.1680708 10.27831 30.220364
3.9587393 9.9518747 30.882742
3.7664397 9.5551109 31.584255
3.6121366 9.0121317 32.36282
3.5022418 8.2911587 33.238258
3.522579 7.0751271 34.371941
3.7077937 5.2045231 35.859264
3.2880383 5.4990711 36.276173
10.194419 8.5516567 20.497732
9.4896431 9.4887133 20.79707
8.9859581 9.9589338 21.197365
8.5049896 10.386854 21.599316
8.1009026 10.632881 22.043051
7.7078438 10.858275 22.487679
7.3192573 11.079241 22.928989
6.9833522 11.167037 23.406904
6.6488676 11.253925 23.883299
6.3264046 11.310632 24.367855
6.0046878 11.367208 24.851286
5.7118907 11.343258 25.361748
5.4304585 11.285444 25.884903
5.1597762 11.193728 26.421812
4.8880115 11.101866 26.960667
4.6152906 11.009459 27.501617
4.3567595 10.869089 28.06373
4.1155815 10.667833 28.653803
3.8824444 10.432341 29.262459
3.6556323 10.166189 29.889214
3.4407668 9.8484058 30.544296
3.2697964 9.3650446 31.28091
3.1091251 8.8241425 32.054115
3.0191083 8.0035248 32.970879
3.3123155 5.7275972 34.60854
9.8601227 8.7120428 19.585455
9.2220039 9.5028419 19.930597
8.7208195 9.9762726 20.335861
8.2735424 10.327869 20.761971
7.870512 10.576707 21.207697
7.4717903 10.822274 21.649212
7.1022663 10.99826 22.105282
6.7602625 11.105743 22.577724
6.4213958 11.208234 23.049477
6.0894098 11.295015 23.524029
5.7720013 11.343375 24.009197
5.4799471 11.320088 24.5172
5.1907406 11.287567 25.028851
4.9093332 11.23045 25.54985
4.6314554 11.160394 26.076723
4.3666229 11.047016 26.621212
4.1173024 10.879948 27.188637
3.866281 10.711735 27.75993
3.6214924 10.516098 28.345757
3.3805039 10.299524 28.944271
3.1628451 9.9934206 29.585253
2.9661226 9.6003799 30.270329
2.7817199 9.1456623 30.990913
2.6458974 8.4916878 31.811579
2.5691333 7.5851917 32.763252
9.5340233 8.8617468 18.687916
8.9663925 9.4927282 19.076824
8.4660912 9.9730797 19.486538
8.0451841 10.264758 19.930553
7.6426473 10.517841 20.378033
7.2460527 10.763388 20.822266
6.8964291 10.890512 21.292795
6.5488882 11.016193 21.761126
6.2064314 11.132003 22.229702
5.8697939 11.235334 22.699598
5.5651674 11.250008 23.194441
5.2637906 11.255676 23.691822
4.9684997 11.243356 24.194944
4.6765962 11.220265 24.701933
4.3934574 11.169111 25.219099
4.1346312 11.039083 25.765402
3.8832293 10.879992 26.324999
3.6325035 10.712273 26.891088
3.3799429 10.543817 27.460888
3.1331704 10.348458 28.044804
2.9125879 10.053038 28.673439
2.7007046 9.7135658 29.326481
2.495852 9.3331699 30.003948
2.3300231 8.7893696 30.760693
2.2069221 8.0564613 31.613239
2.2176425 6.7636924 32.737209
9.8950691 8.1028728 17.44272
9.1898184 9.0655432 17.792349
8.6960964 9.524683 18.221409
8.2273569 9.9342012 18.651403
7.8242884 10.185944 19.107304
7.421586 10.444832 19.556459
7.0421076 10.649826 20.013149
6.69312 10.778404 20.484573
6.3467216 10.904144 20.954121
6.0020809 11.02925 21.421282
5.6777849 11.100283 21.900925
5.3690004 11.128484 22.391462
5.0617542 11.153131 22.882483
4.7604198 11.160759 23.378254
4.4597502 11.166619 23.874432
4.187747 11.082445 24.400078
3.9189734 10.984601 24.93207
3.6590357 10.85393 25.477499
3.4005709 10.713007 26.029266
3.14832 10.545038 26.593885
2.9147127 10.305002 27.189259
2.6830864 10.047512 27.796309
2.4582613 9.7538662 28.423044
2.2381635 9.429327 29.068405
2.0595787 8.9317303 29.793056
1.9006536 8.3339138 30.570927
1.8274131 7.3650193 31.524361
9.4240589 8.6126804 16.500223
8.8735094 9.2097502 16.920603
8.4112635 9.5999012 17.36615
7.9896383 9.8970184 17.82148
7.5940914 10.13493 18.28266
7.2022705 10.370598 18.739496
6.8446126 10.521089 19.21034
6.4937735 10.657763 19.681324
6.1452117 10.792699 20.149963
5.8085699 10.89819 20.623259
5.4948416 10.940655 21.110859
5.1816511 10.983047 21.597624
4.8701034 11.022036 22.084488
4.5636883 11.04669 22.574734
4.2731099 11.022621 23.079168
3.9948874 10.958128 23.596684
3.7201617 10.87969 24.119984
3.4495482 10.784399 24.650465
3.183681 10.669085 25.189716
2.9327657 10.497107 25.751247
2.7006164 10.251323 26.342976
2.4685793 9.9943314 26.943855
2.2341442 9.7346764 27.550949
2.0108304 9.4210262 28.184481
1.8185377 8.9725056 28.878654
1.6362474 8.462738 29.607174
1.5132153 7.687037 30.458441
1.5903914 6.0380521 31.703428
9.5816174 8.3504152 15.169735
8.9888935 9.0508871 15.59166
8.5429373 9.3992682 16.05349
8.10746 9.7314425 16.510952
7.7304926 9.9204798 16.986563
7.3566418 10.107294 17.458776
6.9857073 10.292328 17.927567
6.6413875 10.410126 18.406332
6.2979097 10.529556 18.882374
5.9500384 10.665633 19.352287
5.6273456 10.733395 19.835442
5.3121934 10.781286 20.322083
4.9994822 10.823584 20.809177
4.6871781 10.866199 21.295338
4.3836951 10.882874 21.787756
4.0975561 10.844998 22.295353
3.8132815 10.799589 22.805931
3.5328903 10.73951 23.321892
3.2531047 10.67493 23.840479
2.9865174 10.562156 24.376017
2.7364736 10.386328 24.934938
2.4949088 10.172351 25.510559
2.2553563 9.9414663 26.096489
2.0205257 9.6823168 26.697392
1.8070703 9.3288441 27.338894
1.6007092 8.930582 28.004772
1.4004855 8.4881172 28.696144
1.2560616 7.7926407 29.498981
1.1879911 6.7374883 30.465237
9.6755276 8.2452288 13.819637
9.0654259 8.9889469 14.253881
8.6296902 9.3126698 14.726573
8.1910715 9.6538773 15.190367
7.8246851 9.8166533 15.673573
7.4624758 9.973526 16.154438
7.0916519 10.158798 16.627411
6.762116 10.236696 17.115698
6.433249 10.315351 17.602274
6.0916958 10.432768 18.079626
5.7628365 10.517549 18.561392
5.4497347 10.558941 19.050888
5.1335979 10.610926 19.537144
4.8181872 10.662605 20.022427
4.5083685 10.698833 20.510496
4.2189298 10.671865 21.014114
3.9291732 10.644866 21.518288
3.6394637 10.61665 22.023335
3.3545985 10.571003 22.533964
3.0723858 10.514375 23.048779
2.8125942 10.37682 23.58963
2.5558414 10.22246 24.138584
2.3026266 10.048365 24.697107
2.0548799 9.845993 25.268671
1.8176377 9.5941029 25.861526
1.6101818 9.2137051 26.505428
1.3999524 8.8260612 27.15963
1.1866074 8.4320469 27.824018
1.0356584 7.755125 28.606079
0.91980028 6.8912482 29.476143
9.7476521 8.1930857 12.470666
9.1239319 8.971261 12.919611
8.6893311 9.2941227 13.398966
8.2602501 9.6127434 13.872341
7.8913021 9.7842855 14.357134
7.5364981 9.9237556 14.842699
7.1776142 10.078736 15.323289
6.8477883 10.159174 15.812032
6.5278368 10.214787 16.303162
6.2019138 10.289209 16.789965
5.8775783 10.361628 17.275642
5.5750084 10.372746 17.771576
5.2649331 10.406677 18.262703
4.9554062 10.44017 18.753248
4.6413827 10.488833 19.239771
4.3458734 10.480928 19.738377
4.0540209 10.46095 20.240055
3.764107 10.433828 20.743921
3.4739356 10.406481 21.24839
3.183444 10.3791 21.753418
2.9152513 10.272869 22.281136
2.6487272 10.156167 22.81402
2.3856006 10.022013 23.354492
2.1228037 9.8806572 23.899883
1.8680599 9.7022266 24.459993
1.6397488 9.4126015 25.060459
1.4180241 9.0828876 25.68038
1.202539 8.7115736 26.321484
1.0084229 8.2322083 27.008993
0.84005404 7.6176529 27.756218
0.71746016 6.7689567 28.604893
9.7555294 8.2977304 11.121149
9.1555653 9.0195122 11.590786
8.7357073 9.3081236 12.07856
8.3199978 9.5949316 12.560742
7.9445658 9.785758 13.046326
7.5918717 9.9224539 13.53379
7.2411623 10.058206 14.018639
6.9113188 10.14138 14.507348
6.5982666 10.180676 15.000317
6.2824669 10.229059 15.491185
5.9672775 10.277349 15.981104
5.6674199 10.282509 16.477165
5.3715596 10.27596 16.975168
5.0756893 10.269209 17.473337
4.7687969 10.296202 17.965078
4.4737225 10.287079 18.463665
4.1856737 10.255104 18.967333
3.8928688 10.237412 19.468433
3.5998561 10.219707 19.969889
3.3086281 10.195223 20.473352
3.0363455 10.104027 20.994265
2.7644281 10.007685 21.518349
2.4920187 9.9089565 22.04501
2.2236276 9.7910213 22.579086
1.9560137 9.6648045 23.117958
1.7118983 9.4418774 23.688732
1.4750884 9.1794748 24.276342
1.2393351 8.9000902 24.874672
1.0134892 8.5656471 25.496954
0.83171701 8.0263634 26.196316
0.66131496 7.4091787 26.933979
0.55409336 6.4751868 27.79916
9.7196293 8.5079889 9.7845535
9.1735229 9.1004658 10.273685
8.7603512 9.3757648 10.76671
8.3471718 9.6594601 11.253778
7.982585 9.8257055 11.743344
7.6398158 9.9396076 12.233753
7.2964354 10.058781 12.721434
6.9621925 10.15693 13.208829
6.6528783 10.189294 13.701437
6.3440323 10.221422 14.193434
6.0356569 10.253305 14.684819
5.7369056 10.258254 15.17931
5.4503059 10.227367 15.679021
5.1632876 10.196635 16.179321
4.8680325 10.190088 16.676157
4.5809484 10.157722 17.177727
4.3043561 10.090675 17.686464
4.0176868 10.053792 18.190554
3.7305348 10.017052 18.695349
3.4389961 9.9936638 19.197962
3.1629848 9.9157448 19.713459
2.8890285 9.8273163 20.233002
2.6164098 9.7302933 20.756426
2.342684 9.6331005 21.281816
2.0679007 9.5355301 21.809238
1.8162413 9.3445902 22.364492
1.5660937 9.1387653 22.927809
1.3208022 8.9035149 23.503948
1.0770683 8.6502762 24.090282
0.85961342 8.2730799 24.720934
0.66767454 7.7656231 25.401659
0.48259163 7.2007179 26.111797
0.41898775 6.0489473 27.036655
10.062948 8.5377026 7.9597521
9.5311756 9.0886126 8.4676733
9.1202545 9.3564167 8.9686604
8.7472181 9.5369835 9.4664345
8.3581305 9.7639589 9.9590778
8.0122051 9.8860931 10.451806
7.6709824 9.9996681 10.942577
7.3314457 10.112335 11.431162
7.0033894 10.197445 11.919543
6.7021732 10.211272 12.412161
6.3969736 10.236735 12.903423
6.0897341 10.268873 13.393501
5.7915082 10.275963 13.885763
5.5111914 10.230421 14.384334
5.229373 10.187761 14.883429
4.9432559 10.156712 15.38171
4.6597748 10.116304 15.882029
4.3919225 10.02475 16.391438
4.1187706 9.9468355 16.900309
3.8447075 9.8688822 17.410725
3.5610268 9.8201847 17.91707
3.2898583 9.7265415 18.433443
3.0202775 9.6234512 18.953659
2.7449422 9.5365782 19.472324
2.4686608 9.4494038 19.992773
2.1956358 9.346199 20.518808
1.9411247 9.1675634 21.065811
1.6848691 8.9874611 21.61673
1.4289398 8.7975178 22.173864
1.1753616 8.5886955 22.740053
0.94207478 8.2841921 23.338158
0.72570324 7.8912354 23.968842
0.51835537 7.4377718 24.626057
0.3628912 6.7242346 25.375479
0.38667727 5.1345482 26.428097
10.386427 8.6067829 6.1530218
9.8466492 9.1717224 6.6780119
9.4040031 9.5163918 7.1872187
9.033 9.6941185 7.6877565
8.6643553 9.8711967 8.1847935
8.3089533 10.019899 8.6785831
7.9977617 10.058919 9.171443
7.6838923 10.106171 9.6633043
7.3581181 10.186633 10.152978
7.0355635 10.26095 10.641361
6.7359772 10.274492 11.131778
6.4364815 10.288225 11.621918
6.1372199 10.301751 12.111803
5.8416433 10.305083 12.60231
5.5626392 10.259774 13.097462
5.2831278 10.214382 13.593513
5.0031071 10.168909 14.090467
4.7225761 10.123352 14.588329
4.4590664 10.022279 15.094648
4.1947384 9.9200001 15.603132
3.9294527 9.8169031 16.113754
3.6563678 9.7358465 16.622755
3.3960125 9.6080303 17.141558
3.1385765 9.4647779 17.665737
2.8695555 9.3567505 18.185858
2.5994966 9.2478552 18.708282
2.3299923 9.1321306 19.234316
2.0725136 8.9655094 19.774069
1.8145819 8.7930164 20.318472
1.5570138 8.6109734 20.868607
1.2976131 8.427639 21.422653
1.058341 8.1512499 22.004881
0.83147812 7.8077974 22.610916
0.6059413 7.4407215 23.230413
0.40143013 6.9593554 23.890688
0.27016973 6.1124744 24.671354
10.334717 8.8380299 4.8807707
9.7211876 9.584487 5.425786
9.3280582 9.8168354 5.9324217
8.9475727 10.024762 6.4336119
8.5832176 10.19846 6.9298162
8.261961 10.267953 7.420867
7.9534817 10.306631 7.9103384
7.6456313 10.344858 8.3990517
7.3383231 10.382832 8.887023
7.0426478 10.390614 9.3749237
6.7591262 10.365314 9.8637381
6.4705658 10.353235 10.352489
6.1737494 10.364144 10.840292
5.8764591 10.376797 11.327768
5.604702 10.315022 11.820312
5.3323379 10.252896 12.314095
5.0568399 10.198067 12.808432
4.7776251 10.152739 13.302883
4.513351 10.058689 13.803611
4.2549882 9.9421158 14.308898
3.9950614 9.826189 14.81638
3.7298563 9.7233143 15.324306
3.4740734 9.5842857 15.839664
3.2256131 9.4141741 16.362709
2.9704762 9.2606258 16.886282
2.713794 9.1061401 17.413031
2.4553826 8.9513378 17.942865
2.2053885 8.7578545 18.483423
1.9510646 8.5723143 19.026115
1.6904836 8.4028912 19.568924
1.4317412 8.2179546 20.118595
1.1996717 7.9134159 20.700348
0.96486568 7.6052895 21.288958
0.72727394 7.2935128 21.884546
0.52305365 6.8160529 22.53054
0.35541964 6.1447258 23.239618
0.40106678 4.4290614 24.261518
10.456178 8.6593046 3.592907
9.7760935 9.5635118 4.1689625
9.3347549 9.914712 4.6880741
8.920826 10.208624 5.196825
8.5388165 10.431504 5.6961746
8.2175465 10.50722 6.1850262
7.9101276 10.549614 6.6713409
7.604785 10.587896 7.1567278
7.3002005 10.625355 7.6413612
7.0170364 10.606345 8.1251106
6.7436447 10.560009 8.6094217
6.469604 10.513969 9.0946312
6.1946411 10.469006 9.5807142
5.9077377 10.456833 10.066482
5.6405067 10.386776 10.555152
5.3696413 10.325075 11.044727
5.098042 10.263411 11.535503
4.8258944 10.201208 12.027525
4.5635648 10.105941 12.523573
4.3073192 9.9876747 13.023661
4.0490685 9.8714237 13.525849
3.7896183 9.754631 14.030371
3.534332 9.6191216 14.539494
3.2922883 9.4324064 15.058119
3.0463252 9.2518072 15.579509
2.7986608 9.0697136 16.104654
2.5501699 8.8828182 16.63414
2.3159759 8.6339836 17.17799
2.0749185 8.4003315 17.723919
1.8217199 8.2036438 18.267292
1.5830612 7.9392023 18.828209
1.3469868 7.651361 19.39925
1.1081433 7.3609829 19.976471
0.8701601 7.0521598 20.563633
0.68432522 6.4957399 21.216558
0.49561262 5.9227099 21.884523
0.52786064 4.283318 22.84178
9.9235287 9.3211117 2.8975372
9.4210043 9.8188686 3.4397621
8.9845848 10.168708 3.9595966
8.5663118 10.483548 4.4699564
8.2255001 10.612053 4.9617987
7.8907537 10.728853 5.4504757
7.5737638 10.802997 5.9348774
7.2627373 10.86367 6.4173336
6.9917707 10.81875 6.8956909
6.7206597 10.772797 7.3749027
6.4489727 10.726952 7.855011
6.1766486 10.681397 8.3360081
5.90382 10.635762 8.817893
5.6520228 10.527354 9.3019829
5.3965836 10.425987 9.7879639
5.1343861 10.341425 10.275235
4.8657293 10.273647 10.763311
4.6000805 10.19401 11.253412
4.350039 10.061762 11.748726
4.0985498 9.9292088 12.246634
3.8441749 9.8010883 12.746723
3.5848999 9.6844301 13.248174
3.3463984 9.4917212 13.760141
3.1064692 9.2961273 14.276199
2.8644581 9.0998325 14.796146
2.6192269 8.906929 15.319447
2.3956423 8.6247606 15.859651
2.1655841 8.3547449 16.403433
1.9280212 8.101738 16.949627
1.7129817 7.7469101 17.518719
1.48752 7.4177952 18.089918
1.2582197 7.0886874 18.667515
1.0525198 6.6416564 19.275766
0.86152935 6.1067963 19.911636
0.74647474 5.2001634 20.641605
10.287081 8.5646248 1.5571957
9.5223055 9.6862593 2.1919594
9.0761738 10.059969 2.7223787
8.645874 10.405149 3.2426882
8.287674 10.578819 3.7406864
7.9375973 10.736879 4.2340508
7.594245 10.882257 4.7234449
7.266078 10.992083 5.2078142
6.9800911 10.992461 5.684329
6.6999798 10.976883 6.1601562
6.4285431 10.936853 6.635478
6.1585417 10.891487 7.1114521
5.8879118 10.846415 7.5883055
5.6393023 10.735933 8.0657787
5.390676 10.621719 8.5454121
5.1409626 10.506781 9.0272684
4.8900909 10.391306 9.511364
4.6301031 10.300009 9.9968567
4.3876486 10.149817 10.486733
4.1377382 10.018047 10.978525
3.8865082 9.885582 11.472912
3.6339493 9.7524128 11.969916
3.3961852 9.5633593 12.474152
3.1590419 9.3644733 12.982964
2.9187822 9.168457 13.495331
2.676492 8.9715347 14.0116
2.4551492 8.6883001 14.542209
2.2328787 8.3960953 15.079483
2.0057955 8.1093855 15.621643
1.7992437 7.7278934 16.183668
1.5932636 7.3260469 16.756357
1.3841052 6.9180007 17.337881
1.2224226 6.2871032 17.967442
1.0572877 5.6392384 18.61244
9.3010597 9.6253586 1.4454308
8.7639132 10.23091 2.0090351
8.361578 10.515326 2.5238724
8.0123167 10.672804 3.0197906
7.665194 10.829473 3.5125914
7.3200445 10.985712 4.0023346
7.012938 11.045286 4.4816294
6.7183938 11.072687 4.9576111
6.4268141 11.092801 5.4326458
6.1481786 11.077347 5.9055891
5.8723221 11.053492 6.3785048
5.6267862 10.941174 6.849349
5.3800602 10.828531 7.3223553
5.132266 10.715185 7.7975273
4.8833976 10.601121 8.2748823
4.6334372 10.486341 8.7544508
4.4008064 10.312698 9.2373848
4.1664228 10.13822 9.7236977
3.9239745 9.9835501 10.212601
3.67574 9.8422155 10.703843
3.43293 9.6768446 11.199213
3.2015023 9.4653139 11.700901
2.9681273 9.2520065 12.20681
2.7315516 9.0413418 12.716604
2.503993 8.7883577 13.234556
2.2857571 8.4891272 13.76231
2.0652847 8.1851473 14.296392
1.8559783 7.8231997 14.843624
1.6640742 7.3740129 15.409648
1.4687953 6.9172716 15.985437
1.3338294 6.1824908 16.613035
1.350049 4.7538333 17.368813
9.4458847 8.6631517 0.5682869
8.5956736 10.049657 1.2571335
8.1230822 10.516405 1.799715
7.743825 10.756124 2.3059845
7.3958211 10.921196 2.7993736
7.079814 11.006205 3.2814875
6.7771235 11.057884 3.7589121
6.4750018 11.109638 4.2353497
6.1766295 11.152596 4.7101574
5.8864098 11.173861 5.1827745
5.6262279 11.109271 5.6504221
5.3722763 11.024249 6.1184187
5.1238346 10.919888 6.5873947
4.8768697 10.807395 7.058176
4.6288366 10.694199 7.5311098
4.3940163 10.535381 8.0059862
4.164784 10.352813 8.484024
3.9338036 10.169091 8.9655838
3.7011719 9.9838123 9.4507122
3.4622557 9.8125858 9.9389353
3.2393055 9.5793743 10.433108
3.0075183 9.3678436 10.930623
2.773782 9.1545429 11.432317
2.544456 8.9159927 11.939921
2.3341074 8.595871 12.458748
2.1164186 8.2897568 12.982452
1.8964503 7.9787331 13.512535
1.7130647 7.5064254 14.066368
1.5263305 7.0254974 14.630313
1.3906207 6.3064032 15.234326
1.4200211 4.8391323 15.956175
8.7317295 9.0967007 0.38665771
8.0050306 10.212128 1.0370159
7.5388317 10.680309 1.5786724
7.1553874 10.943208 2.0856304
6.8443751 11.019108 2.5659027
6.5431676 11.070564 3.0421247
6.2425928 11.121911 3.5173483
5.9425783 11.173338 3.9915962
5.6632423 11.167076 4.4603901
5.3969703 11.122465 4.9266958
5.1325173 11.07093 5.3934526
4.8779368 10.987772 5.8596573
4.6243086 10.898748 6.3272228
4.3873386 10.754397 6.7948503
4.1599755 10.574137 7.2645235
3.9308925 10.392744 7.7376356
3.7001848 10.209829 8.2142162
3.4677765 10.025566 8.694313
3.2508445 9.7808094 9.17904
3.03582 9.5194902 9.6689157
2.8108387 9.2830725 10.162864
2.5801878 9.0574589 10.66083
2.3680356 8.7531052 11.167565
2.1567807 8.4319773 11.681238
1.9427123 8.107439 12.201317
1.7538052 7.6676283 12.737432
1.568687 7.1917133 13.285393
1.4134965 6.5677619 13.857922
1.3201361 5.6481643 14.476084
8.2075863 9.0695114 0.13787651
7.4642982 10.262186 0.80353737
7.1358128 10.377246 1.2957973
6.8091841 10.490833 1.7856693
6.3135805 11.076328 2.3303509
6.0118823 11.134631 2.8052444
5.7273049 11.145836 3.2742386
5.455039 11.121587 3.7397547
5.1824455 11.097492 4.2057438
4.911418 11.067854 4.6717863
4.6471691 11.016407 5.1370163
4.392581 10.933012 5.6014967
4.1585927 10.781213 6.0645275
3.9280849 10.612535 6.5298681
3.699213 10.432118 6.998126
3.4687257 10.250195 7.4698019
3.2444537 10.039876 7.944767
3.0333848 9.7750597 8.4239225
2.820076 9.5074272 8.908165
2.6044893 9.2369423 9.3975773
2.3931198 8.9393044 9.893013
2.1917393 8.5908489 10.396227
1.9796896 8.2683105 10.904768
1.7771749 7.8933153 11.422632
1.6015873 7.3916292 11.956518
1.4250503 6.8700285 12.501556
1.3261924 5.9924355 13.088255
7.3013372 9.2982655 0.41609764
6.9686055 9.4161701 0.91666985
6.5646391 9.7378159 1.4425297
5.9853134 10.570198 2.0264397
5.5196199 11.100559 2.5594616
5.2480388 11.076359 3.0232792
4.9761925 11.05213 3.4875555
4.7040129 11.028065 3.9523067
4.4328728 10.999926 4.4171963
4.1871071 10.890561 4.8770447
3.9430735 10.771606 5.3384047
3.7061138 10.625004 5.8006563
3.4696562 10.471136 6.2654009
3.2393956 10.29019 6.7322388
3.0289521 10.033226 7.2009096
2.8175297 9.769351 7.6743822
2.6038713 9.5026827 8.1528635
2.3879418 9.23318 8.6364307
2.1965733 8.8594074 9.1268835
2.0035415 8.4756317 9.6246967
1.7985461 8.1217709 10.128733
1.6240349 7.6286993 10.645806
1.4467568 7.123847 11.172896
1.3208141 6.3776436 11.725121
1.4089222 4.6673293 12.362757
7.133779 8.3027096 0.016288757
6.7963028 8.4246025 0.52560806
6.2573338 9.1328573 1.1146812
5.6422868 10.088316 1.7225952
5.0446186 11.024251 2.31007
4.7710638 11.007212 2.7735195
4.4995708 10.983191 3.2365828
4.245676 10.902897 3.6948872
3.9944704 10.811069 4.1537523
3.7430055 10.716677 4.6141672
3.4979675 10.597338 5.0747662
3.2542863 10.468806 5.5371189
3.0290756 10.271358 5.998786
2.8150325 10.026622 6.4624929
2.6032619 9.7636862 6.930356
2.3892658 9.4979763 7.4031467
2.183445 9.1902647 7.8806553
1.9938145 8.807086 8.3641386
1.8012068 8.4185143 8.8549404
1.6189492 7.9707708 9.3543339
1.4599571 7.4067383 9.8657436
1.3038149 6.8038387 10.389378
1.2152872 5.8805947 10.940231
6.5283985 7.6653738 0.16278839
5.9242978 8.5795383 0.79035187
5.2687731 9.6807671 1.4259892
4.5757837 10.935833 2.0602207
4.30933 10.897717 2.5202141
4.0591621 10.806222 2.9752131
3.8080125 10.714567 3.4319172
3.5559828 10.622386 3.8903055
3.3030665 10.529675 4.3503923
3.0592518 10.402035 4.8098049
2.8330157 10.207631 5.2676287
2.6116405 9.9879417 5.7278442
2.3915677 9.7544136 6.1916323
2.1762969 9.4931049 6.658947
1.9827337 9.137763 7.1291084
1.7921755 8.7550535 7.6056204
1.5985858 8.3671722 8.0893307
1.4306402 7.8568668 8.581111
1.2780318 7.2584915 9.0838804
1.1739602 6.423779 9.6038408
1.2936873 4.5676899 10.174692
6.2071204 7.0328875 -0.18520927
5.5644455 8.0862646 0.47158051
4.4454422 10.664754 1.3222218
4.1454496 10.73124 1.7961388
3.876117 10.700873 2.2570553
3.6222327 10.618418 2.7127218
3.3703215 10.526224 3.168932
3.1187713 10.429225 3.6264305
2.8856895 10.263901 4.0800304
2.6510539 10.097476 4.5366526
2.4220104 9.9038982 4.9946404
2.1926346 9.7034569 5.4558811
1.9781549 9.4379644 5.9178886
1.7831738 9.0853558 6.3816786
1.5916495 8.703311 6.8512869
1.397089 8.3161201 7.3279829
1.2429361 7.7433257 7.810359
1.0884333 7.1446209 8.3035173
1.0107799 6.1823635 8.811635
5.1705694 7.6818295 0.1636982
4.0521617 10.337688 1.039732
3.7340014 10.46341 1.5233078
3.4486876 10.483965 1.9912682
3.1858804 10.428564 2.4499779
2.9500291 10.277296 2.8994265
2.716552 10.111585 3.3502913
2.4815218 9.9447689 3.8041573
2.2449169 9.7768402 4.2610598
2.0091143 9.5987759 4.720397
1.7999272 9.3104982 5.176383
1.5960155 8.9886942 5.6360512
1.394846 8.6413078 6.100667
1.2091274 8.214201 6.569191
1.0558815 7.62994 7.0420675
0.89988565 7.0292201 7.5256529
0.84552383 5.9487629 8.0183411
4.0976429 9.4844637 0.20448112
3.6726265 9.9555283 0.74767876
3.3306553 10.162593 1.245079
3.0430734 10.189474 1.7150345
2.7855549 10.111359 2.1717224
2.5477047 9.9592972 2.6215658
2.3122261 9.7922821 3.0727072
2.075227 9.6239624 3.5268383
1.8532615 9.3908443 3.9786491
1.6367388 9.1262035 4.4324436
1.4237528 8.8355732 4.8894682
1.2112417 8.5296736 5.3510494
1.0344124 8.059968 5.8106365
0.86942053 7.5169163 6.2762232
0.73753071 6.8016729 6.7470531
0.68027973 5.7140098 7.2241392
3.3439729 9.3848944 0.42473793
2.9781055 9.6755123 0.93877792
2.669234 9.7736025 1.4213066
2.3954887 9.7473192 1.886301
2.1449597 9.6333561 2.3415127
1.9172869 9.4274635 2.7889395
1.7020633 9.1641912 3.2345409
1.4846458 8.8979778 3.6847687
1.2649002 8.6291714 4.1397333
1.0553746 8.3053436 4.5958099
0.87792349 7.8294401 5.0485725
0.69985485 7.3330956 5.5091095
0.58528042 6.5278912 5.9656639
0.65772486 4.8233547 6.4070778
3.094753 8.5045109 0.049030304
2.6443622 9.0987883 0.61625671
2.3042538 9.3083115 1.1184845
2.0249157 9.2964172 1.5878086
1.7766199 9.1638727 2.0426521
1.5508466 8.9364271 2.4892645
1.3324299 8.6690254 2.935955
1.116189 8.380332 3.3855963
0.92936897 7.9535098 3.8288593
0.73939943 7.5197983 4.2794991
0.56079626 7.014183 4.7334061
0.46196556 6.1196232 5.1744709
3.1934226 5.1670113 -0.22736931
2.8007421 5.506989 0.32926178
1.6998949 8.6464434 1.2598019
1.4276905 8.5946274 1.7284908
1.1838317 8.4239178 2.1841793
0.9915905 8.0281305 2.6186724
0.80311298 7.5972753 3.0569983
0.61154318 7.1590376 3.5026035
0.48906565 6.3864141 3.9293766
0.47637081 5.0649314 4.3312826
2.343931 5.238287 0.03521347
1.958467 5.5759306 0.58744812
1.5777125 5.9094458 1.1329365
1.201478 6.2393422 1.6718597
0.74006701 6.9583988 2.2486687
0.5390811 6.5436773 2.6946459
0.42265844 5.7185535 3.1094437
1.1246672 5.6433191 0.84298134
0.75063705 5.9756651 1.3843746
0.51424503 5.6955857 1.8476219
7.0493774 8.5441914 39.318283
6.3650885 8.7326221 39.16597
5.6858025 8.7206926 39.175613
5.00352 8.5071564 39.348221
7.7370462 8.1524773 38.798962
7.0417452 8.5895166 38.452759
6.3613739 8.7712793 38.308769
5.6858015 8.7598972 38.317787
5.0073338 8.5522404 38.482285
4.3164396 8.0819578 38.854828
8.4620438 7.1243916 38.768826
7.725009 8.2136383 37.923389
7.0340071 8.6419268 37.590965
6.3575697 8.8196449 37.45303
5.6857996 8.807868 37.46217
5.0112123 8.6051416 37.619522
4.3244743 8.1428871 37.978302
3.5881019 6.7310519 39.07412
8.4400797 7.2962122 37.801521
7.7127333 8.2836571 37.050751
7.0209298 8.9009037 36.581459
6.3514113 9.0502443 36.467911
5.685802 9.0393238 36.476212
5.0177832 8.8660631 36.607944
4.3326406 8.2119923 37.105244
3.609638 7.029861 38.004028
8.3980465 7.8569875 36.557777
7.7125444 8.0473833 36.416008
7.0299773 8.315506 36.216358
6.3558235 8.4739685 36.098366
5.6858053 8.464983 36.105057
5.0133381 8.2866993 36.237808
4.3346448 8.0476246 36.415825
3.6268773 7.2240276 37.029076
8.4331055 6.9392228 36.417046
7.715661 7.7262449 35.843277
7.0254607 8.2498569 35.46154
6.3524742 8.4932766 35.284081
5.6858044 8.4775133 35.29557
5.0154471 8.209219 35.491165
4.3297663 7.6184459 35.921864
3.6252944 6.9384732 36.417595
8.4796524 5.7927685 36.418678
7.6833301 8.3195868 34.615479
6.9972038 9.10534 34.054749
6.3381557 9.3646049 33.869728
5.6858034 9.3431025 33.885075
5.0291319 9.0302515 34.10833
4.3502288 8.1689968 34.722946
3.5904331 5.7932858 36.418312
8.3124285 8.7968607 33.494247
7.621573 9.6840248 32.874699
6.9659772 10.086408 32.593693
6.3241367 10.22281 32.498436
5.6858025 10.205608 32.510452
5.0455012 10.069554 32.605461
4.3938417 9.6276932 32.914032
3.708863 8.6161156 33.620468
8.9484406 8.885355 32.660271
8.243763 9.9045744 31.96393
7.588243 10.322365 31.678492
6.9469543 10.601515 31.487774
6.3148808 10.718374 31.407936
5.6858044 10.703926 31.417805
5.0550365 10.586575 31.49798
4.4162493 10.273121 31.712135
3.7633834 9.8016691 32.034237
3.0586185 8.5516739 32.888248
9.6208296 8.3925438 32.224419
8.8771725 9.7718801 31.302731
8.2059975 10.417844 30.87109
7.5625343 10.769033 30.636421
6.9316754 10.976357 30.497885
6.3073864 11.082594 30.426895
5.6858006 11.069263 30.435802
5.0626974 10.963177 30.506691
4.4335275 10.724902 30.665909
3.7939544 10.373295 30.900856
3.1274481 9.6686726 31.371693
9.518404 9.5052748 30.731857
8.8310137 10.272429 30.230639
8.17803 10.74462 29.922131
7.542532 11.071814 29.708363
6.9195323 11.233062 29.603012
6.301466 11.327662 29.541206
5.6858015 11.315754 29.548985
5.0687881 11.221313 29.610685
4.4469495 11.03113 29.734943
3.8150568 10.703176 29.949211
3.1654096 10.189157 30.285042
2.4798386 9.3138809 30.856903
10.2017 8.7732458 30.457067
9.4653749 9.9777126 29.687874
8.7961798 10.600094 29.290409
8.1550732 10.977119 29.049633
7.5261984 11.282393 28.854683
6.90944 11.412844 28.771374
6.2964892 11.502668 28.714008
5.6858015 11.491714 28.721004
5.073842 11.401645 28.778526
4.4579139 11.24449 28.878887
3.8324208 10.939363 29.073746
3.1935935 10.522726 29.339819
2.5308797 9.8940449 29.741306
1.7825916 8.3447752 30.730698
10.131828 9.3375931 29.358597
9.4279528 10.249448 28.789581
8.7681618 10.824213 28.430916
8.1360016 11.136382 28.236118
7.5126047 11.424147 28.056545
6.9008074 11.538145 27.985409
6.2922235 11.624291 27.931652
5.685801 11.613643 27.938297
5.0781617 11.527048 27.992332
4.4670315 11.38826 28.078939
3.8467653 11.099655 28.259033
3.2163644 10.753515 28.475033
2.5627742 10.176655 28.835005
1.8632917 9.1832733 29.454895
10.888547 7.8958478 29.505932
10.080732 9.6946487 28.40947
9.3973398 10.434927 27.958229
8.7455158 10.96636 27.634296
8.1197119 11.243465 27.465385
7.500947 11.517656 27.298252
6.8934002 11.617504 27.237389
