# .PCD v0.7 - Point Cloud Data file format
VERSION 0.7
FIELDS x y z
SIZE 4 4 4
TYPE F F F
COUNT 1 1 1
WIDTH 1609
HEIGHT 1
VIEWPOINT 0 0 0 1 0 0 0
POINTS 1609
DATA ascii
47.034168 9.1401711 6.5179005
47.109203 9.1303005 6.386507
47.180962 9.1097689 6.2537432
47.250381 9.0809383 6.1195769
47.320114 9.0520372 5.9848371
47.38916 9.0197182 5.8490524
47.453545 8.9702387 5.7100644
47.518402 8.920392 5.5700483
47.583584 8.8696251 5.4288993
47.642155 8.7927828 5.282083
47.701397 8.715066 5.1335955
47.757076 8.6204472 4.980227
47.806992 8.4992733 4.8194652
47.847492 8.3352232 4.6469669
47.839787 7.9682584 4.4249573
46.329178 8.968154 7.8968382
46.436657 9.045001 7.7650614
46.529068 9.0830956 7.6345134
46.620972 9.1210289 7.5047054
46.70406 9.1353178 7.3750095
46.785759 9.1460915 7.2454653
46.867325 9.1568508 7.1161308
46.94355 9.1521063 6.9861417
47.018154 9.1422911 6.8557258
47.092869 9.1324615 6.7251177
47.16563 9.1161537 6.5937667
47.234726 9.0875168 6.460928
47.3041 9.0587034 6.3275108
47.373795 9.0298195 6.1935234
47.438267 8.9821234 6.0566363
47.502754 8.9325609 5.9185686
47.567722 8.8826323 5.7794809
47.627567 8.8121758 5.6362686
47.686409 8.7349854 5.490581
47.744469 8.6514673 5.3422928
47.793995 8.5314312 5.1857023
47.840336 8.3933392 5.0232925
47.867634 8.1721468 4.841382
46.603203 9.1136131 7.8377724
46.687923 9.1331835 7.7081623
46.769329 9.1439199 7.5788326
46.850605 9.1546392 7.4497118
46.927975 9.1541672 7.3204565
47.002266 9.1443939 7.1908145
47.076668 9.1346054 7.0609827
47.150448 9.1225348 6.9308238
47.219208 9.094038 6.7992868
47.288246 9.0653648 6.6671834
47.357597 9.036622 6.534514
47.423134 8.9938946 6.3999062
47.487259 8.9446125 6.2637563
47.551857 8.8949671 6.1266046
47.613136 8.8313646 5.986702
47.671577 8.7546921 5.8437643
47.730686 8.6771517 5.6992073
47.781128 8.563077 5.5474048
47.831074 8.4418535 5.39219
47.860786 8.2341185 5.219347
46.747322 9.1254997 7.9099417
46.833992 9.1523933 7.7808142
46.912529 9.1562119 7.6520739
46.986507 9.1464787 7.5231991
47.060596 9.1367321 7.394135
47.134792 9.1269703 7.2648816
47.203827 9.100502 7.1346951
47.27253 9.0719681 7.0038857
47.34153 9.0433121 6.8725147
47.408146 9.0055542 6.7399192
47.471912 8.9565496 6.6056571
47.536144 8.9071856 6.4704123
47.598854 8.8503494 6.3334436
47.656906 8.774189 6.1932058
47.715618 8.6971722 6.0513873
47.768436 8.5943918 5.9046855
47.817974 8.474246 5.7535377
47.853516 8.2929449 5.5908284
46.521698 8.5278683 8.2615833
46.632401 8.6150093 8.1247978
46.725559 8.6535454 7.9906163
46.970875 9.1485472 7.852911
47.044655 9.1388407 7.7246079
47.118542 9.1291208 7.5961156
47.188564 9.1068573 7.4671903
47.25695 9.0785131 7.3376579
47.325615 9.0499964 7.207572
47.393299 9.0171051 7.0767236
47.456711 8.9683733 6.9443192
47.52058 8.9192867 6.8109498
47.584721 8.8691359 6.6765513
47.642391 8.7934828 6.5389643
47.700706 8.7169819 6.3998337
47.755882 8.6252689 6.2576094
47.805023 8.5061846 6.1104383
47.84639 8.350956 5.9564266
47.849525 8.0339956 5.7775283
46.491936 8.4889183 8.604887
46.610264 8.59799 8.464942
46.706318 8.6454849 8.3297739
46.794376 8.670784 8.1962738
46.877403 8.6817026 8.0636082
47.092762 9.1014481 7.9251328
47.173447 9.1132088 7.7968121
47.241508 9.0850019 7.6685386
47.309841 9.0566225 7.5397196
47.378479 9.0281754 7.4103546
47.44165 8.9800854 7.279788
47.505165 8.9312744 7.1482658
47.569141 8.8821087 7.0157871
47.628025 8.8125734 6.8810973
47.68597 8.7366371 6.7446117
47.743492 8.6558294 6.6062694
47.792217 8.5376759 6.4629774
47.839363 8.4079924 6.3162546
47.866692 8.1927443 6.1576095
46.527225 8.4058294 8.8168869
46.687183 8.6374235 8.6667271
46.776939 8.6684341 8.5327063
46.859692 8.679369 8.400259
46.937752 8.6762619 8.2685719
47.013645 8.6662674 8.1370296
47.084042 8.6383724 8.0056553
47.294056 9.0627193 7.8690014
47.362511 9.0348816 7.7408872
47.426731 8.9916887 7.6121082
47.489895 8.9431486 7.4824047
47.553513 8.8942575 7.3517613
47.613811 8.8314648 7.2196627
47.671375 8.756031 7.0857677
47.729561 8.6797009 6.9503784
47.779575 8.568841 6.8112459
47.828728 8.4496489 6.6693597
47.859436 8.2513933 6.5184531
46.66819 8.6294689 9.0014896
46.726715 8.5687103 8.8747253
46.814529 8.5940399 8.7405148
46.92136 8.6784897 8.6030321
46.996925 8.6684809 8.4722576
47.068352 8.6449785 8.3418932
47.138332 8.6159325 8.2112732
47.202702 8.5673075 8.080596
47.272503 8.5350561 7.9487324
47.474766 8.9549112 7.8134108
47.538033 8.9062939 7.6845741
47.599747 8.8501596 7.5547152
47.656929 8.7752228 7.4233656
47.714733 8.6994009 7.2905588
47.767075 8.599575 7.1553116
47.815838 8.4814262 7.0172291
47.852325 8.3092356 6.8736234
46.707439 8.5605783 9.2092342
46.824673 8.6748085 9.0662041
46.879524 8.6026688 8.9416761
46.955795 8.5944824 8.8107815
47.052757 8.6514168 8.6752625
47.122425 8.6225643 8.5458956
47.187874 8.5788078 8.4167213
47.251419 8.5270138 8.2870378
47.308723 8.4519482 8.1570835
47.358887 8.3491116 8.026289
47.584553 8.8641634 7.8863616
47.642635 8.7942162 7.7574596
47.700058 8.7188931 7.6271882
47.754738 8.6299973 7.4952574
47.803085 8.512764 7.3608894
47.84531 8.3661165 7.2232389
47.859028 8.0977621 7.0772772
46.861744 8.6001387 9.2732563
46.939236 8.5966434 9.1425533
47.037334 8.6579113 9.0057869
47.083096 8.5536146 8.8839455
47.148552 8.5097561 8.7556782
47.237106 8.5410967 8.6217499
47.295074 8.4699173 8.494029
47.347569 8.3770199 8.3659439
47.386131 8.2312746 8.2379951
47.742535 8.6600008 7.831152
47.790489 8.543725 7.7004237
47.838417 8.4221716 7.5674338
47.865257 8.2105513 7.4302559
46.769867 8.3728285 9.6328669
46.858723 8.4013128 9.4965734
46.937229 8.3983555 9.3644781
47.067371 8.5601597 9.214695
47.158684 8.6016598 9.0797043
47.196896 8.468811 8.960865
47.253811 8.3940306 8.8349485
47.335617 8.4019938 8.701889
47.379997 8.2789326 8.5768232
47.821281 8.4370384 7.9068441
47.858162 8.2682238 7.7752972
46.747063 8.3552237 9.9674025
46.840691 8.3988724 9.8285046
46.920418 8.400629 9.6962938
46.99247 8.3780479 9.567297
47.056393 8.3283205 9.4411697
47.107731 8.2352304 9.3189583
47.240417 8.4120045 9.1673365
47.289993 8.3109016 9.0449104
47.371887 8.3186998 8.9114666
46.724411 8.337822 10.300238
46.822289 8.3949251 10.158324
46.903736 8.4028835 10.025517
46.976803 8.3845825 9.8969059
47.042786 8.3427734 9.7713585
47.097225 8.2615137 9.6503716
47.313564 8.1830378 9.2605343
46.818657 8.4356203 10.477114
46.89946 8.4431686 10.345067
46.961285 8.391118 10.223741
47.028336 8.3539772 10.098936
47.086834 8.2875061 9.9780979
46.957867 8.4352102 10.540297
47.026531 8.4051046 10.415903
47.074207 8.3055496 10.303596
47.115555 8.1813297 10.193702
47.129459 8.2882357 10.502048
46.766792 9.2768869 0.095723629
46.939743 9.2727327 0.092433453
46.240585 9.0754843 0.14886904
46.4198 9.1875792 0.23587275
46.594959 9.2577114 0.29030704
46.767651 9.2804127 0.30792713
46.939743 9.2774611 0.30563593
47.112228 9.2504826 0.2846961
47.286625 9.1779346 0.22838736
47.46484 9.0570145 0.13453341
46.057735 8.8899107 0.21847773
46.243973 9.0777559 0.36129808
46.42226 9.1883993 0.4454217
46.596573 9.2579031 0.49826574
46.768456 9.2804384 0.51539993
46.939743 9.2775011 0.5131669
47.111416 9.2510042 0.49302053
47.284981 9.1788015 0.43812466
47.462296 9.0593176 0.34727907
47.647079 8.8568754 0.19336033
46.062164 8.894969 0.43390131
46.247322 9.0799456 0.57163668
46.424698 9.1892118 0.65299654
46.598175 9.2580338 0.70424175
46.769249 9.2804642 0.72094345
46.939743 9.2775402 0.71876574
47.110615 9.2515192 0.69939041
47.283356 9.1796618 0.64588499
47.459778 9.0615978 0.55797482
47.643517 8.862112 0.4094367
46.066555 8.9000368 0.64721727
46.250637 9.0821133 0.77995825
46.427113 9.1900177 0.85862541
46.599758 9.2581635 0.9083066
46.770039 9.2804899 0.92458344
46.939743 9.2775793 0.92246199
47.109818 9.2519722 0.90379238
47.281746 9.1804523 0.85165167
47.457283 9.0638561 0.76664877
47.639988 8.8673573 0.62339258
46.0709 8.905055 0.8584094
46.253922 9.0842609 0.98629427
46.429504 9.1908159 1.0623345
46.601326 9.2582922 1.1104879
46.770821 9.2805729 1.1263876
46.939743 9.2776184 1.1242795
47.109028 9.2524776 1.1063385
47.280148 9.1812954 1.055541
47.454811 9.0660944 0.9733305
47.636497 8.872488 0.83516884
45.858902 8.3472252 0.67447996
46.075203 8.9100246 1.0675092
46.257179 9.0864477 1.1907144
46.431873 9.1915474 1.2641106
46.602882 9.258419 1.3108106
46.771595 9.2805977 1.326299
46.939743 9.2776566 1.324245
47.108246 9.2529793 1.3070114
47.278564 9.1821308 1.2575345
47.452366 9.0683107 1.1780486
47.633041 8.8775692 1.0448451
45.869328 8.4187765 0.93556166
46.079464 8.9149437 1.2745485
46.260403 9.0885534 1.3931608
46.434219 9.1923313 1.4640625
46.60442 9.2585459 1.5093014
46.772366 9.2806234 1.5243847
46.939743 9.2777529 1.5224237
47.107468 9.2534761 1.5058374
47.276997 9.1829586 1.4576592
47.44994 9.0705051 1.3808303
47.62962 8.8826017 1.2524519
45.879555 8.4889603 1.1916547
46.083683 8.9198141 1.4795568
46.263596 9.090641 1.5937049
46.436546 9.1931067 1.6621737
46.605949 9.2586718 1.7059846
46.773125 9.2806473 1.7206693
46.939743 9.2777901 1.7187598
47.106701 9.253911 1.7028039
47.275444 9.1837206 1.6559017
47.44754 9.0726805 1.5817034
47.626228 8.8876429 1.4580598
45.889587 8.5578146 1.4429014
46.08786 8.9246387 1.6825647
46.266762 9.0927658 1.7924101
46.43885 9.1938753 1.8584697
46.60746 9.2587948 1.9008844
46.77388 9.2806721 1.9151776
46.939743 9.2778273 1.9133193
47.105938 9.2543983 1.8980126
47.273907 9.1845322 1.8523657
47.44516 9.0748348 1.7806947
47.622875 8.8925762 1.6616163
45.895447 8.5727978 1.6558576
46.091995 8.9293556 1.8835621
46.269897 9.0948143 1.9892268
46.441135 9.1946383 2.0529759
46.608959 9.2589169 2.0940256
46.774628 9.280695 2.1079335
46.939743 9.2778645 2.1061256
47.105186 9.2548828 2.0914493
47.272381 9.185338 2.0470366
47.442802 9.0769691 1.9778306
47.619553 8.897459 1.8631923
45.901058 8.5851145 1.8648896
46.096092 8.9340878 2.0826557
46.272999 9.0968428 2.1842189
46.443401 9.1953926 2.2457154
46.610447 9.2590389 2.2854321
46.775368 9.2807198 2.2989612
46.939743 9.2779007 2.2972021
47.104439 9.2553625 2.2831376
47.27087 9.1861362 2.239939
47.440468 9.0790834 2.173136
47.616261 8.902298 2.0628183
47.821716 8.3239336 1.7019081
45.906609 8.5972986 2.0716882
46.100147 8.9387732 2.2798343
46.276077 9.0988531 2.3774114
46.445641 9.196084 2.4366791
46.611919 9.25916 2.4751267
46.7761 9.2807426 2.4882827
46.939743 9.2779369 2.4865723
47.103695 9.2557812 2.4730675
47.269371 9.1869259 2.4310961
47.438156 9.0811777 2.3666375
47.612999 8.9071474 2.2605567
47.813381 8.3942947 1.9479465
45.912098 8.609354 2.2762885
46.104168 8.9434137 2.4751248
46.279125 9.1009016 2.5688641
46.447865 9.196826 2.6259589
46.613377 9.2592793 2.6631324
46.776829 9.2807665 2.6759214
46.939743 9.2779722 2.6742582
47.102962 9.2562523 2.6613307
47.267891 9.1876535 2.6204991
47.435863 9.0832529 2.5583594
47.609772 8.911891 2.4563622
47.805206 8.4632759 2.1893404
45.91753 8.6212826 2.4787257
46.10815 8.9480104 2.6685548
46.282146 9.1028757 2.7585318
46.450066 9.1975613 2.813544
46.614826 9.2594538 2.8495035
46.77755 9.2807894 2.8619001
46.939743 9.2780085 2.8602839
47.102238 9.2566633 2.8478825
47.266422 9.1884298 2.808239
47.433594 9.08531 2.7483263
47.606575 8.9165907 2.6503003
47.797192 8.5308523 2.4261861
45.922905 8.6330853 2.6790338
46.112091 8.9525623 2.8601506
46.285137 9.1048298 2.9464731
46.452248 9.1982889 2.9994559
46.616261 9.2595711 3.0341976
46.778263 9.2808123 3.0462399
46.939743 9.2780437 3.0446701
47.101521 9.256793 3.0326226
47.264961 9.1891994 2.9943032
47.431343 9.087348 2.9365621
47.603405 8.9213047 2.8424292
47.791153 8.5675144 2.6418607
45.928223 8.644763 2.8772464
46.115997 8.9570742 3.0499384
46.288105 9.1067677 3.1327119
46.454414 9.1990118 3.183718
46.61768 9.2596874 3.2172687
46.778973 9.2808352 3.2289627
46.939743 9.2780781 3.2274377
47.100807 9.2569218 3.2157393
47.263519 9.1899624 3.178714
47.429115 9.0893669 3.12309
47.600269 8.9259129 3.0327084
47.786682 8.5795317 2.8411763
45.933483 8.6562605 3.0733633
46.119862 8.961483 3.2379115
46.291042 9.1086874 3.317271
46.456558 9.1997271 3.3663514
46.619091 9.2598028 3.3987384
46.779675 9.2809124 3.4101191
46.939743 9.2781687 3.4086394
47.100101 9.2570486 3.3972535
47.262085 9.1907187 3.3614945
47.426903 9.0914249 3.3079643
47.59716 8.9305382 3.2212291
47.782257 8.591424 3.0384095
45.938694 8.6676989 3.2674835
46.123695 8.965909 3.4241593
46.293953 9.1105909 3.5001733
46.458683 9.2003813 3.5473483
46.620487 9.2599173 3.5786271
46.780369 9.2809353 3.5896702
46.939743 9.2782021 3.5882344
47.099403 9.2571745 3.5771866
47.26067 9.191412 3.5426364
47.424713 9.0934076 3.4911456
47.594082 8.9350624 3.4079528
47.777874 8.6032524 3.2336242
45.943848 8.679018 3.4596033
46.127491 8.970294 3.608674
46.296841 9.1124773 3.6814411
46.460789 9.2010851 3.7267892
46.621872 9.2600298 3.7569561
46.781059 9.2809582 3.7676671
46.939743 9.2782354 3.766274
47.098713 9.2572994 3.755559
47.259262 9.1921558 3.7222195
47.422543 9.0953722 3.6726871
47.59103 8.9396009 3.5929658
47.77354 8.6148987 3.4267881
45.948948 8.6901646 3.6497259
46.131256 8.9746389 3.7914796
46.299702 9.1143456 3.8610954
46.462879 9.2017813 3.904665
46.623241 9.2601414 3.9337454
46.781746 9.2809792 3.944129
46.939743 9.2782688 3.9427786
47.098026 9.2574234 3.9323912
47.257866 9.192893 3.9002354
47.420391 9.0973215 3.852612
47.588009 8.9440975 3.7762609
47.769253 8.6264267 3.6179652
45.953999 8.7012539 3.8379395
46.134983 8.9789438 3.9725995
46.302536 9.1161985 4.0391588
46.464951 9.2024727 4.0809956
46.624603 9.260252 4.1090145
46.782421 9.2810001 4.1190758
46.939743 9.2783022 4.1177673
47.097343 9.2575464 4.1077023
47.256485 9.1936235 4.076704
47.418259 9.0992517 4.0309405
47.585014 8.9484959 3.9578347
47.765011 8.6378345 3.8071856
45.958992 8.7121735 4.0242167
46.138676 8.9832077 4.1520567
46.305344 9.1180344 4.215651
46.467003 9.2031584 4.2558022
46.625954 9.2603626 4.282784
46.783096 9.2810221 4.2925282
46.939743 9.2783356 4.2912612
47.096668 9.2576685 4.2815132
47.255116 9.1943464 4.251646
47.416145 9.1011639 4.2076941
47.582047 8.9529104 4.1377664
47.760807 8.649128 3.9944797
45.963943 8.7230406 4.208642
46.142334 8.9874334 4.329875
46.308132 9.119854 4.390594
46.46904 9.2038383 4.4291034
46.627289 9.2604723 4.4550719
46.78376 9.281044 4.4645047
46.939743 9.278368 4.4632778
47.096001 9.2577887 4.4538412
47.253757 9.1950102 4.4250555
47.414051 9.1030607 4.3828936
47.579105 8.9572849 4.3160505
47.756649 8.660306 4.1798763
45.968842 8.733798 4.3912153
46.145962 8.991621 4.5060759
46.310894 9.1216583 4.5640073
46.471054 9.2045126 4.6009188
46.628616 9.260581 4.6258974
46.784424 9.281064 4.6350226
46.939743 9.2784014 4.6338363
47.095337 9.2579088 4.6247072
47.252411 9.1957226 4.597003
47.411976 9.1049404 4.5565596
47.576195 8.9615622 4.4926844
47.752533 8.6713715 4.3634043
45.973686 8.7443924 4.5719399
46.149551 8.9957151 4.6806574
46.313629 9.1234465 4.7359114
46.473053 9.2051258 4.771244
46.629929 9.2606878 4.795279
46.785076 9.281085 4.8041019
46.939743 9.2784328 4.8029552
47.094681 9.258028 4.7941284
47.251076 9.1964283 4.7674818
47.40992 9.1068039 4.7287121
47.573307 8.9658585 4.6677418
47.748455 8.6823254 4.5450912
45.978489 8.7549372 4.7508931
46.153111 8.9998264 4.8536897
46.316341 9.1252193 4.9063253
46.475037 9.2057877 4.940145
46.631237 9.260848 4.9632573
46.785728 9.281105 4.9717607
46.939743 9.2784643 4.9706521
47.094028 9.2581453 4.9621229
47.249752 9.1971283 4.9365101
47.407879 9.1086512 4.8993702
47.570446 8.9701138 4.841217
47.744423 8.6931133 4.7249413
45.983242 8.7653208 4.9280524
46.156586 9.0029707 5.0247908
46.319031 9.1269236 5.0752468
46.477005 9.2064447 5.1076169
46.632526 9.2609529 5.1298051
46.786373 9.281126 5.1380167
46.939743 9.2784958 5.1369462
47.09338 9.2582626 5.1287098
47.248436 9.1978216 5.1041069
47.405857 9.1104813 5.0685539
47.567616 8.9742775 5.0131106
47.740433 8.7037935 4.9030075
45.987949 8.7756596 5.1034923
46.159981 9.0052671 5.1940632
46.321697 9.1286659 5.2427392
46.478954 9.2070951 5.2736769
46.633812 9.2610579 5.2949629
46.78701 9.281146 5.302887
46.939743 9.2785282 5.3018541
47.092739 9.258378 5.2939057
47.247135 9.1985092 5.2702899
47.403851 9.112298 5.2362828
47.564804 8.9784575 5.1834879
47.736481 8.7143688 5.0793152
45.992607 8.785841 5.2771916
46.163349 9.0075436 5.3618741
46.324341 9.130394 5.4087992
46.480888 9.2077417 5.4383435
46.635082 9.2611618 5.4587479
46.787643 9.2812185 5.4664092
46.939743 9.2785597 5.4653931
47.092106 9.2584934 5.4577284
47.245846 9.1991396 5.4350576
47.401863 9.1140976 5.4025745
47.562019 8.9826012 5.3523474
47.732567 8.7248392 5.253891
45.997223 8.7959776 5.4492192
46.166691 9.0098553 5.5282626
46.326962 9.1321058 5.5734439
46.482807 9.2083817 5.6016331
46.636341 9.2612638 5.6211772
46.788273 9.2812386 5.6285591
46.939743 9.2785892 5.6275802
47.091473 9.258606 5.6201949
47.244568 9.1998158 5.5984674
47.399895 9.1158829 5.5674481
47.559261 8.9866533 5.5196881
47.728691 8.7352648 5.4267817
46.001511 8.8019056 5.6181097
46.169998 9.0120916 5.6932058
46.329559 9.1338053 5.736692
46.484707 9.2090168 5.7635641
46.637592 9.2613659 5.7822676
46.788898 9.2812576 5.7893748
46.939743 9.2786198 5.7884321
47.090851 9.2587194 5.781322
47.243298 9.2004871 5.7605162
47.397938 9.1176519 5.7309208
47.556522 8.9907236 5.6855712
47.724854 8.745533 5.5979686
46.005695 8.806839 5.7851462
46.173279 9.0143099 5.8567433
46.332138 9.1354895 5.8985615
46.486591 9.2096472 5.9241529
46.638832 9.261467 5.9420357
46.789516 9.2812777 5.9488721
46.939743 9.2786503 5.9479656
47.090229 9.258832 5.9411263
47.242039 9.2011528 5.9212217
47.396 9.1194067 5.8930111
47.553814 8.9947586 5.8499961
47.72105 8.7557011 5.7674985
46.009842 8.8117285 5.9506989
46.176537 9.0165634 6.0189099
46.334694 9.1371603 6.0590692
46.488461 9.2102184 6.0833979
46.640064 9.2615681 6.1004977
46.790127 9.2812967 6.1070676
46.939743 9.2786798 6.1061964
47.089611 9.2589426 6.0996237
47.240788 9.2018127 6.0805988
47.394081 9.1211462 6.0537367
47.551125 8.9987583 6.0129809
47.717289 8.7657719 5.9353952
46.01395 8.8165751 6.114789
46.17976 9.0187445 6.179688
46.337227 9.1388149 6.2182322
46.490318 9.2108393 6.241353
46.641281 9.2616663 6.257669
46.790737 9.2813168 6.2639771
46.939743 9.2787094 6.2631402
47.089005 9.2590523 6.2568302
47.239552 9.2024155 6.2386484
47.392174 9.1228714 6.2131138
47.548481 9.002243 6.1743908
47.713562 8.7757454 6.1016822
46.018024 8.8213778 6.2774343
46.182961 9.0209064 6.3391123
46.339741 9.1404572 6.3760676
46.492157 9.2114534 6.3980141
46.642494 9.2617645 6.4135661
46.79134 9.2813349 6.4196153
46.939743 9.2787905 6.418829
47.088398 9.2591629 6.4127617
47.238323 9.2030649 6.395421
47.390285 9.1245823 6.3711605
47.545914 9.0044775 6.334034
47.709866 8.7856789 6.2663994
46.022057 8.826086 6.4386387
46.186131 9.0230513 6.497201
46.342232 9.142086 6.5325918
46.49398 9.2120638 6.5533977
46.643692 9.2618637 6.5682044
46.791939 9.281354 6.5739989
46.939743 9.2788191 6.5732455
47.087795 9.2592707 6.5674334
47.237106 9.2037086 6.5509138
47.388412 9.1262789 6.5278921
47.543373 9.0066929 6.4923372
47.706207 8.7954636 6.4295344
46.026062 8.8308058 6.598454
46.189278 9.0252304 6.6539845
46.344704 9.1437016 6.6878219
46.495792 9.2126675 6.7075195
46.644886 9.26196 6.7215986
46.79253 9.2813721 6.7271428
46.939743 9.2788486 6.7264218
47.0872 9.2593784 6.720861
47.235897 9.2043486 6.7051435
47.386555 9.1279612 6.6833262
47.540848 9.0088911 6.6493177
47.702793 8.8014669 6.5900745
46.030029 8.8354855 6.7568808
46.192398 9.027338 6.8094497
46.347153 9.1453028 6.8417721
46.497585 9.2132683 6.8603954
46.646065 9.2620573 6.873764
46.793121 9.2813911 6.8790612
46.939743 9.2788773 6.8783722
47.086609 9.2594843 6.8730588
47.234699 9.2049818 6.8581247
47.384708 9.1296816 6.837492
47.538349 9.0110703 6.8049917
47.699478 8.8062305 6.7488651
46.033962 8.8401241 6.9139376
46.195492 9.0294285 6.9636278
46.349586 9.1468906 6.9944596
46.499367 9.2138624 7.0120392
46.64724 9.2622032 7.0247278
46.793705 9.2814608 7.0297828
46.939743 9.2789049 7.0291119
47.086025 9.2596407 7.0240555
47.233513 9.2055597 7.0098596
47.382881 9.1313362 6.9903769
47.535866 9.0132313 6.9593759
47.696186 8.8109522 6.90628
46.037861 8.8447227 7.0696416
46.198559 9.0315037 7.1165352
46.351997 9.148468 7.1459002
46.501133 9.2144527 7.1624665
46.648399 9.2622976 7.1744785
46.794285 9.2814779 7.1792936
46.939743 9.2789345 7.1786551
47.085442 9.2597466 7.1738377
47.232334 9.2061834 7.1603904
47.381069 9.1329775 7.1420112
47.533405 9.0153742 7.1124854
47.692924 8.8156872 7.0623517
46.041729 8.8492832 7.2240109
46.201603 9.0335598 7.268187
46.354389 9.1500301 7.2961078
46.502884 9.2149878 7.3116798
46.649555 9.2623911 7.3230433
46.794861 9.2814951 7.3276229
46.939743 9.2789621 7.3270159
47.084866 9.2598495 7.3224344
47.231163 9.2068033 7.3097177
47.379272 9.1346054 7.2924099
47.530968 9.0174999 7.2643366
47.68969 8.8203278 7.2170696
46.045563 8.8538036 7.3770628
46.204617 9.0355482 7.4185867
46.356762 9.1515808 7.4450979
46.504623 9.2155685 7.4597178
46.6507 9.2624846 7.470437
46.795429 9.2815132 7.4747849
46.939743 9.2789888 7.4742079
47.084293 9.2599525 7.4698582
47.230003 9.2074165 7.4578552
47.377487 9.13622 7.4415884
47.528549 9.0196075 7.4149446
47.686481 8.8249817 7.3704772
46.049358 8.8582325 7.528801
46.207607 9.0375719 7.5677748
46.359112 9.1531181 7.592885
46.506348 9.2161446 7.6065822
46.651833 9.2625771 7.6166725
46.795998 9.2815304 7.6207919
46.939743 9.2790174 7.6202455
47.083725 9.2600555 7.6161251
47.228851 9.208025 7.6048174
47.375717 9.1378212 7.5895615
47.52615 9.021698 7.5643253
47.6833 8.8295956 7.5225778
46.053127 8.8626776 7.6792674
46.210575 9.0395794 7.7157531
46.361446 9.154644 7.7394848
46.50806 9.2167168 7.7522869
46.652958 9.2626686 7.7617645
46.796558 9.2815485 7.7656584
46.939743 9.2790442 7.7651424
47.08316 9.2601566 7.7612467
47.227711 9.2086296 7.7506189
47.373966 9.13941 7.7363424
47.523766 9.0237722 7.7124929
47.680149 8.8341188 7.6733775
46.056866 8.8670845 7.828465
46.213219 9.0360394 7.8614559
46.362965 9.137888 7.8813429
46.508938 9.192297 7.8919668
46.653385 9.2310486 7.8995333
46.796722 9.245719 7.9023981
46.939743 9.2438002 7.9020233
47.082943 9.2289286 7.8991199
47.227097 9.1853523 7.8906107
47.372765 9.1244278 7.8787146
47.521591 9.0215578 7.8586283
47.677025 8.8386564 7.8229146
46.038879 8.5385447 7.9150352
46.189014 8.5383282 7.9149952
46.339123 8.5375109 7.9148445
46.493504 8.6672554 7.9387646
46.644329 8.7629118 7.9563999
46.792492 8.8048525 7.9641323
46.939743 8.8022881 7.9636593
47.087543 8.7544289 7.9548359
47.237747 8.6436672 7.9344158
47.390205 8.5376196 7.9148645
47.540325 8.5383816 7.9150057
47.690445 8.5388165 7.9150858
46.304062 7.6735635 7.9144802
46.495068 8.6623611 8.0860806
46.645473 8.763176 8.1035767
46.79306 8.8048496 8.1108093
46.939743 8.8022947 8.1103649
47.086967 8.7547789 8.1021194
47.236774 8.6355343 8.0814247
47.416515 7.6731958 7.9144163
46.496838 8.664237 8.2334642
46.646614 8.7634907 8.2496243
46.793621 8.8047943 8.2563486
46.939743 8.8023014 8.2559433
47.086399 8.7550735 8.2482538
47.235588 8.6374683 8.2291069
46.498573 8.6654644 8.3795834
46.647739 8.7637501 8.3945389
46.794182 8.8047915 8.4007835
46.939743 8.8023081 8.4004059
47.085835 8.7554178 8.3932714
47.234417 8.6393318 8.3756065
46.500294 8.6665773 8.5245466
46.648861 8.7640076 8.5383415
46.794739 8.8048401 8.5441227
46.939743 8.8022623 8.5437584
47.085274 8.7557077 8.5371666
47.233253 8.6411304 8.5209427
46.501968 8.6666851 8.6682529
46.649872 8.759511 8.6804237
46.795216 8.7979031 8.6854563
46.939743 8.7955379 8.6851463
47.084759 8.7519608 8.6794338
47.232109 8.6425447 8.6650887
46.499523 8.5378876 8.7953119
46.649258 8.6788893 8.8123302
46.794994 8.725563 8.8179636
46.939743 8.7229757 8.8176508
47.085125 8.6656446 8.8107319
47.233955 8.5033979 8.7911501
46.505367 8.6697578 8.9527245
46.652176 8.7650757 8.9632435
46.796379 8.8049316 8.9676418
46.939743 8.8024864 8.9673719
47.083614 8.7568207 8.9623318
47.229805 8.6471672 8.9502306
46.502945 8.5414562 9.0803127
46.651455 8.6795282 9.0941343
46.796082 8.7255402 9.0987415
46.939743 8.7230234 9.0984888
47.084019 8.666954 9.0928764
47.231606 8.5098419 9.0771484
46.504631 8.5430365 9.2211409
46.652542 8.6798954 9.233449
46.796619 8.7255297 9.2375526
46.939743 8.72297 9.2373228
47.083473 8.6676273 9.2323456
47.230423 8.51408 9.2185373
46.647667 8.3955469 9.3489876
46.795071 8.5261593 9.3594151
46.939743 8.518074 9.3587704
46.648792 8.3974838 9.4891853
46.795609 8.5262194 9.4981718
46.939743 8.5181646 9.4976101
47.086159 8.3071203 9.4828777
47.381241 8.2351713 9.4778557
46.64991 8.3994045 9.6283064
46.796143 8.5262794 9.6359005
46.939743 8.5183067 9.6354218
47.085545 8.3141289 9.6232023
46.65102 8.4013109 9.7663631
46.796673 8.5263386 9.7726116
46.939743 8.5183954 9.7722139
47.084934 8.3211327 9.7623558
46.652119 8.403203 9.903367
46.797199 8.5263977 9.9083157
46.939743 8.5184841 9.9079971
47.084328 8.3280249 9.9003468
46.65321 8.4050808 10.039331
46.797722 8.5264568 10.043025
46.939743 8.5185719 10.042786
47.083725 8.3352318 10.037206
46.654297 8.4071016 10.174271
46.798241 8.526515 10.176751
46.939743 8.5187101 10.176589
47.083126 8.3424301 10.172928
46.655373 8.4090538 10.308189
46.798756 8.5265722 10.309504
46.939743 8.518796 10.309417
47.082535 8.3495169 10.307524
46.657875 8.4814987 10.441219
46.799675 8.5669136 10.44136
46.939743 8.5615416 10.441351
47.080936 8.4558115 10.441176
46.57473 9.1358929 0.11971569
46.764431 9.1611023 0.29630232
46.980793 9.1482534 0.26519299
46.308136 9.0172796 0.57280159
46.465973 9.0902224 0.98675728
46.630119 9.1418018 1.2893577
46.808952 9.1654968 1.4478259
47.021656 9.1429214 1.3689156
47.301373 9.0440578 0.90073538
46.089645 8.8281574 0.6357193
46.226624 8.951395 1.2752085
46.366779 9.0469217 1.7772994
46.518417 9.1086493 2.1132331
46.679653 9.1470661 2.3348851
46.8517 9.1655178 2.459142
47.058392 9.1381416 2.3616984
47.346367 9.0187616 1.8213611
45.913273 8.5379028 0.22479582
46.027618 8.7428818 1.2138686
46.150532 8.8898897 1.930913
46.284573 8.990119 2.4292412
46.422634 9.0670033 2.8181331
46.565208 9.1251717 3.1195264
46.724186 9.1518173 3.275212
46.894512 9.1599112 3.3454621
47.091599 9.1338377 3.2594683
47.402843 8.9777384 2.5811906
45.871552 8.415309 0.6349864
45.971359 8.6566315 1.7360678
46.088768 8.8126249 2.4577651
46.211014 8.9309168 3.011287
46.336014 9.0246105 3.4550104
46.472725 9.0850153 3.7516379
46.610218 9.1355886 4.0043192
46.764561 9.1559563 4.1247039
46.933434 9.1548138 4.1513505
47.129753 9.1201324 4.0327435
47.455036 8.9398842 3.2855539
45.849842 8.246068 0.81582212
45.928741 8.5482178 2.1209898
46.032211 8.7351732 2.9388502
46.14259 8.8739862 3.5524163
46.264935 8.9675398 3.9749508
46.3866 9.0477228 4.3402615
46.517864 9.1013222 4.5938559
46.65411 9.1404419 4.7865467
46.801266 9.159687 4.896421
46.968971 9.1501732 4.8873434
47.16563 9.1064968 4.7378206
47.502403 8.9059982 3.944953
45.869202 7.9606266 0.51965284
45.887592 8.4440393 2.4927492
45.980824 8.656086 3.3742633
46.088039 8.7996359 3.9793186
46.197933 8.9137859 4.4650917
46.313297 9.0004501 4.8399067
46.434372 9.0651989 5.1265001
46.558773 9.1161194 5.3573771
46.694168 9.144825 5.4998093
46.834751 9.163106 5.6007438
47.001537 9.1459341 5.5621552
47.19873 9.0938759 5.387145
45.866573 8.2932882 2.6584706
45.941612 8.5567999 3.6988289
46.036087 8.7286539 4.3858848
46.137703 8.8569527 4.9046593
46.248341 8.9484339 5.2817454
46.356937 9.0301485 5.6204128
46.477783 9.081151 5.8417773
46.596039 9.1295805 6.0526323
46.73093 9.1487293 6.152586
46.86731 9.1637402 6.2367039
47.031502 9.1420326 6.1830554
47.229393 9.0821247 5.9869747
45.863247 8.0952578 2.6415839
45.903595 8.4611874 4.013617
45.988789 8.6556435 4.7547097
46.08744 8.7885923 5.2689972
46.186825 8.8992157 5.7001762
46.293934 8.9798317 6.0209179
46.401741 9.0483198 6.2965736
46.517433 9.0957212 6.4950829
46.634537 9.1353664 6.6649404
46.764725 9.152318 6.7526407
46.901096 9.1593056 6.8043518
47.059166 9.1384315 6.7562585
47.257812 9.0712442 6.5431099
45.880489 8.3325624 4.19104
45.952454 8.5641403 5.0325809
46.039387 8.7231054 5.6173143
46.133533 8.8423653 6.0614367
46.234127 8.9320688 6.4010935
46.335384 9.008379 6.6929908
46.443428 9.0638437 6.9116306
46.553791 9.1090813 7.0941381
46.670914 9.1393785 7.2245016
46.795887 9.1556406 7.306159
46.932381 9.1552219 7.3303418
47.084782 9.1350965 7.2870569
47.284241 9.0611162 7.0600672
45.862556 8.1928024 4.320878
45.917152 8.4757385 5.3025961
45.995594 8.6552649 5.9337492
46.086941 8.7790823 6.3760562
46.177273 8.8866844 6.7624974
46.277222 8.962039 7.0400276
46.373623 9.0337934 7.3045282
46.48175 9.0781155 7.4770479
46.587238 9.1213884 7.6454711
46.704575 9.1430645 7.741972
46.827724 9.1546354 7.8048677
46.964989 9.1468525 7.8039699
47.108624 9.131938 7.7797852
47.308872 9.0516768 7.5418859
45.892246 8.3657398 5.4857244
45.961727 8.5704412 6.1746035
46.042233 8.7183123 6.6779366
46.129944 8.8297014 7.0621839
46.221813 8.9178934 7.3706279
46.316666 8.9894676 7.6247683
46.418217 9.0412235 7.8147421
46.546085 9.0457077 7.8536048
46.680973 9.0392733 7.8577385
46.817276 9.0315008 7.8577213
46.954155 9.0237074 7.8577452
47.091637 9.0158672 7.857728
47.229862 9.0078144 7.8571467
47.375393 8.9918852 7.8319378
45.875645 8.2365923 5.5991187
45.928795 8.4882107 6.4088612
46.001476 8.6549387 6.9524617
46.086514 8.7708149 7.3367634
46.169018 8.8756981 7.6856456
46.277847 8.9185286 7.8422537
46.410099 8.915617 7.8578801
46.545708 8.9075594 7.8577833
46.6819 8.8994675 7.8576875
46.818665 8.891367 7.8576708
46.956013 8.8832445 7.8576941
47.093964 8.8750734 7.8576765
47.232517 8.8668671 7.8576612
47.371674 8.8586245 7.8576441
47.512997 8.848527 7.852138
45.887524 8.0286102 5.4713588
45.902306 8.3941383 6.5939236
45.969761 8.5758963 7.1634226
46.044704 8.7141542 7.6010709
46.142288 8.7869778 7.8425207
46.274647 8.7838516 7.8578463
46.410118 8.7755136 7.85779
46.546173 8.7671394 7.8577337
46.682827 8.7587147 7.8576365
46.820061 8.7502813 7.8576193
46.957886 8.7418118 7.8576031
47.096306 8.7333183 7.857626
47.235348 8.724761 7.8575687
47.374989 8.7161798 7.8575516
47.51524 8.7075605 7.8575344
47.660858 8.6933889 7.8415174
45.886848 8.2741203 6.6941371
45.938896 8.499033 7.3687367
46.01086 8.6449537 7.8135967
46.138863 8.6517649 7.8578129
46.274197 8.6431456 7.8577957
46.410126 8.6344748 7.857739
46.546638 8.6257801 7.8577232
46.66814 8.6429348 7.9312897
46.778465 8.6759129 8.0495243
46.90427 8.6824827 8.0926113
47.061306 8.6438885 8.0080776
47.238197 8.5816793 7.8574762
47.378311 8.5727692 7.8574991
47.519054 8.5638046 7.857482
47.660454 8.5547571 7.8573422
45.881458 8.1276255 6.7166114
45.911022 8.4187069 7.5531797
46.003601 8.517333 7.8521643
46.137955 8.5104399 7.8577614
46.273746 8.5014849 7.8577452
46.410137 8.4924774 7.857688
46.513859 8.543849 8.0238638
46.604336 8.6123629 8.2364845
46.705196 8.6568804 8.3825531
46.816799 8.6803875 8.4706612
46.944942 8.6772776 8.4858904
47.108063 8.6251278 8.3676987
47.381676 8.4283533 7.8574057
47.5229 8.419055 7.8574295
47.664795 8.4096546 7.8572884
45.896564 8.306612 7.6426101
46.001373 8.377409 7.857728
46.137039 8.3681555 7.8577108
46.273293 8.3588619 7.8576946
46.39959 8.3705635 7.9137506
46.469135 8.4875193 8.2496319
46.550827 8.5701132 8.49296
46.649227 8.6160078 8.6381388
46.73975 8.66998 8.8041325
46.858372 8.6760187 8.8431168
46.98679 8.6672468 8.8430653
47.176311 8.5740185 8.6214161
47.526768 8.2733011 7.8573761
47.66917 8.2635431 7.857235
47.821171 8.2426682 7.8282156
45.882225 8.195467 7.7312851
45.999996 8.234498 7.8576765
46.13612 8.2249022 7.8576603
46.272842 8.2152491 7.8576021
46.372158 8.2838669 8.0595388
46.427425 8.4300261 8.4602671
46.519382 8.4928379 8.6453114
46.586861 8.5916843 8.9219837
46.694977 8.6135721 9.0007782
46.821346 8.6046419 9.0007038
46.947025 8.597559 9.0054321
47.075748 8.5867023 9.0006561
47.530666 8.1265335 7.8573236
47.673557 8.1164284 7.8572226
45.9053 7.9798207 7.5535355
45.998608 8.0906124 7.8576255
46.135201 8.0806541 7.8575678
46.272381 8.0706682 7.8575516
46.3601 8.1671743 8.123642
46.397438 8.3534002 8.6122932
46.461536 8.4684544 8.9219103
46.57045 8.4910612 9.0008698
46.657162 8.5493011 9.1678057
46.774429 8.5523739 9.197813
46.899372 8.5432606 9.197752
47.02486 8.5341206 9.1977224
47.207336 8.4446135 9.0005646
47.67799 7.9682679 7.8571672
45.997208 7.9457426 7.857574
46.134266 7.9354324 7.8575163
46.271915 7.9250937 7.8574986
46.408936 7.9174275 7.8640623
46.391891 8.2291527 8.6422062
46.445656 8.3681641 9.0007601
46.531696 8.4328814 9.179163
46.651768 8.4312992 9.1977892
46.775246 8.4241676 9.2031422
46.901951 8.4125109 9.1977634
47.027905 8.403019 9.1976681
47.154392 8.3935261 9.1976709
47.340439 8.3008881 9.0004711
45.998745 7.791688 7.8381634
46.133335 7.7891941 7.8574228
46.27145 7.7785149 7.8574457
46.410194 7.7677541 7.8573875
46.392757 8.0910702 8.6401205
46.446518 8.23526 9.0007763
46.528801 8.3099213 9.1977654
46.651634 8.3036413 9.2056084
46.737286 8.3621445 9.3639488
46.830303 8.403204 9.4812679
46.954021 8.3923054 9.4780483
47.157909 8.2611752 9.1976166
47.285427 8.2512941 9.1975861
46.132534 7.6415691 7.8564682
46.270981 7.6309223 7.8573933
46.410202 7.6197968 7.8573341
46.550034 7.6086397 7.857316
46.447418 8.1013727 9.000658
46.530098 8.1783056 9.1977434
46.643646 8.1899424 9.2465649
46.692135 8.3160896 9.5533428
46.769524 8.3817472 9.7228279
46.867893 8.40765 9.8024549
47.011341 8.3613014 9.7200794
47.265839 8.1528845 9.2761822
46.27095 7.4811707 7.8548245
46.410213 7.4708099 7.8572807
46.550541 7.4592638 7.8572216
46.448326 7.966548 9.0005407
46.53141 8.0457535 9.1976891
46.655125 8.0390148 9.2055225
46.658745 8.2524843 9.6954136
46.719917 8.3460703 9.9213943
46.803127 8.3947277 10.048557
46.908249 8.4042721 10.090208
47.448822 8.108613 9.5143452
46.552235 7.3060899 7.8512211
46.692509 7.2968459 7.8570237
46.577126 7.8199992 9.0004816
46.658752 7.9016256 9.1976376
46.649483 8.1462908 9.7408113
46.680462 8.2964096 10.080984
46.730133 8.40135 10.324053
46.815159 8.439395 10.424782
46.920345 8.4425812 10.451668
46.628288 8.2734556 10.288702
46.695683 8.3463058 10.45916
46.808422 8.3364925 10.459119
46.921692 8.3266106 10.459026
47.035458 8.31672 10.459009
47.347027 8.1775866 10.216291
46.610455 8.1900606 10.36559
46.698463 8.2265797 10.459103
46.811619 8.216444 10.459035
46.925289 8.2062759 10.458994
47.039474 8.1960735 10.458975
47.197357 8.1193838 10.32707
46.701263 8.1059933 10.459044
46.814835 8.0955458 10.458977
46.928913 8.0850754 10.45896
47.043518 8.0745564 10.458942
46.704086 7.9845405 10.458986
46.818081 7.9737601 10.458892
46.932564 7.9629984 10.458925
46.702991 8.3570642 10.462942
46.816902 8.3677807 10.462959
46.931355 8.3785734 10.462926
46.700176 8.235672 10.462987
46.813671 8.2460718 10.463004
46.927704 8.256546 10.462971
47.042259 8.2670679 10.462936
46.611229 8.1550932 10.362644
46.69738 8.1151476 10.46303
46.810463 8.1252346 10.463048
46.924068 8.1353807 10.463041
47.038223 8.1456127 10.462955
46.786476 8.5857372 9.2019815
46.630894 8.0750332 10.278793
46.694603 7.9954805 10.463075
46.807278 8.0052605 10.463092
46.920471 8.0150967 10.463084
47.034206 8.0250149 10.462999
47.346413 8.1652126 10.218099
46.415699 9.0364342 7.8281231
46.550194 9.0328522 7.8614054
46.69141 9.0444298 7.8621874
46.531738 8.4293461 9.2020607
46.6577 8.4399805 9.2020741
46.645931 8.1907148 9.755024
46.684464 8.0544548 10.06575
46.735165 7.9509683 10.305775
46.822449 7.9162765 10.399463
46.929707 7.9158769 10.420531
46.269672 8.8592453 7.8620806
46.409286 8.870656 7.8621969
46.549538 8.8821545 7.8622322
46.447361 8.3750792 9.0050812
46.530418 8.295927 9.2020998
46.654079 8.30266 9.2099352
46.661594 8.0964174 9.6839981
46.725174 8.0067902 9.9013596
46.809456 7.9595222 10.025541
46.91758 7.9543357 10.05777
47.507759 8.1533661 9.7126827
46.131569 8.6995392 7.86237
46.270123 8.7106247 7.8622808
46.409279 8.7217407 7.8622341
46.549042 8.7328701 7.8622675
46.446465 8.2403345 9.0051498
46.529102 8.1634264 9.2021704
46.644516 8.155365 9.2429056
46.696369 8.0351229 9.5363827
46.776012 7.972949 9.6980724
46.876087 7.9493303 9.7726297
47.030525 8.0122128 9.6533089
47.288074 8.2239914 9.2020521
47.362579 8.156744 9.3747454
45.997124 8.5474863 7.8488312
46.132515 8.5523796 7.8624058
46.270596 8.5631018 7.8623171
46.409275 8.5738535 7.8622694
46.391602 8.2501497 8.6459017
46.445583 8.1065416 9.0051842
46.527809 8.0318747 9.2021761
46.650574 8.0381212 9.2100868
46.742851 7.9911499 9.3416395
46.838425 7.9538693 9.4502535
46.966873 7.9716434 9.4312096
47.156628 8.0805779 9.2020779
47.2841 8.0904646 9.2020254
45.996468 8.3959446 7.8624477
46.133457 8.406229 7.8624411
46.271065 8.4165926 7.8623533
46.406818 8.4216061 7.8753271
46.391167 8.1130333 8.645834
46.444714 7.9736867 9.0051861
46.535969 7.9187126 9.1601486
46.650711 7.9105244 9.2022591
46.775478 7.91991 9.2022076
46.898758 7.9260683 9.2099648
47.026669 7.9387798 9.2021694
47.153118 7.9482913 9.202117
47.339073 8.0408764 9.0050354
45.900665 8.3507566 7.5865679
45.997868 8.2511425 7.8624821
46.134392 8.2610769 7.8624763
46.271523 8.2710705 7.8624296
46.358479 8.1730595 8.1322689
46.399876 7.9951692 8.6001244
46.464523 7.8808894 8.9078426
46.569469 7.8508706 9.0052233
46.663769 7.8056588 9.1398926
46.773335 7.7895322 9.2022133
46.898201 7.7986107 9.2022266
47.023632 7.8077431 9.2022076
47.206036 7.8972249 9.0051022
47.676476 8.3733482 7.8622384
45.883095 8.1505938 7.7251072
45.99926 8.1073246 7.8625174
46.135323 8.1169119 7.8625107
46.271984 8.1265574 7.8624644
46.373081 8.0617208 8.054636
46.43129 7.9211559 8.4409761
46.518879 7.849926 8.6476822
46.590919 7.7590656 8.9038849
46.693932 7.7283878 9.0051937
46.820229 7.7372847 9.0051956
46.947079 7.7462072 9.0052319
47.074505 7.7551956 9.0052013
47.529247 8.2151976 7.8622823
47.67205 8.2252598 7.8622756
45.897442 8.0393991 7.6363592
46.000641 7.9644799 7.8625517
46.136246 7.9737253 7.862546
46.272446 7.983027 7.8624988
46.40239 7.9787102 7.89886
46.473644 7.8646359 8.227108
46.556644 7.783905 8.4655399
46.650974 7.7306213 8.6303482
46.776379 7.7323346 8.6492119
46.861622 7.6726279 8.83004
46.994839 7.6881714 8.8122034
47.196209 7.7974119 8.5485859
47.525356 8.0684986 7.8623185
47.667656 8.0782013 7.8623118
47.820602 8.100317 7.8300467
45.876587 8.202529 6.7543287
45.911915 7.9272547 7.5468535
46.003246 7.8255157 7.8544903
46.137161 7.8315072 7.8625803
46.272911 7.8404832 7.8624935
46.409233 7.8494692 7.8624873
46.519695 7.810441 7.9946914
46.610306 7.7415762 8.2083406
46.712528 7.6987467 8.3498459
46.825806 7.677247 8.4325371
46.956512 7.6834893 8.4393072
47.127342 7.7457414 8.2937241
47.380333 7.9135237 7.8623199
47.521496 7.9228144 7.8623538
47.663292 7.9321609 7.8623476
45.887806 8.0721273 6.6867485
45.941746 7.8516793 7.3485084
46.011555 7.7003174 7.8090463
46.138069 7.6902475 7.8626137
46.273357 7.6988735 7.8625689
46.409225 7.7075372 7.8625221
46.545677 7.7162247 7.8625154
46.67532 7.712666 7.8974242
46.787647 7.6822276 8.0085297
46.916008 7.678771 8.0428972
47.078003 7.7236156 7.9408188
47.236904 7.7602448 7.8624439
47.376991 7.7691908 7.8623562
47.517658 7.7781329 7.8623905
47.658958 7.7871284 7.8623838
45.882153 8.2998848 5.5168877
45.903275 7.9520497 6.5864429
45.972698 7.774766 7.1426067
46.048958 7.6388769 7.5732455
46.142662 7.557477 7.8402405
46.273808 7.5582314 7.8626027
46.409222 7.5665627 7.862556
46.545204 7.574903 7.8625908
46.681797 7.5833197 7.862504
46.818966 7.5917459 7.8624983
46.956734 7.6002088 7.8624911
47.0951 7.6087084 7.8624845
47.234081 7.617259 7.8624382
47.373669 7.6258469 7.8623905
47.513847 7.6344447 7.8624249
47.662437 7.6521349 7.8361874
45.876678 8.1099129 5.5903549
45.931789 7.8629222 6.3857589
46.004509 7.6956844 6.9309878
46.090981 7.5823283 7.3075471
46.174683 7.4791451 7.6512537
46.278675 7.4266787 7.8375769
46.409214 7.4265356 7.8625903
46.544739 7.4345469 7.8626242
46.680862 7.4426188 7.8625784
46.817558 7.4506998 7.8626127
46.954861 7.4588418 7.862566
47.092762 7.4670191 7.8625193
47.231266 7.4752321 7.862473
47.370361 7.4834676 7.8624673
47.51347 7.4957128 7.8504705
45.888943 8.4166145 4.0368729
45.893295 7.9806967 5.4768467
45.964825 7.7806368 6.1507859
46.046776 7.6353574 6.6458344
46.134651 7.5235653 7.0314407
46.227764 7.4370723 7.3345098
46.322716 7.3649526 7.5904717
46.421692 7.3082581 7.7962666
46.546406 7.2984815 7.8520069
46.679924 7.3028536 7.8626919
46.816166 7.3106194 7.8626871
46.952991 7.3184185 7.8626809
47.090431 7.3262768 7.8625941
47.229378 7.3352833 7.8590012
47.378815 7.3558121 7.8193417
45.863647 8.1539097 4.3106966
45.920357 7.8759875 5.2755971
45.99884 7.6958642 5.9088082
46.091736 7.5747256 6.3422084
46.183369 7.4689202 6.7227244
46.283421 7.392942 7.0024171
46.381187 7.322794 7.2616601
46.489594 7.2781444 7.4353571
46.595364 7.23458 7.6048312
46.714745 7.2151718 7.6939301
46.835339 7.1993918 7.7707987
46.975403 7.210288 7.759738
47.12513 7.2320843 7.7130699
47.331314 7.3184357 7.4553785
45.881645 8.0141869 4.1803083
45.955727 7.7874193 5.0050483
46.044273 7.6313286 5.5798059
46.13858 7.5115466 6.0258274
46.240482 7.4235477 6.3596373
46.341866 7.3466406 6.6536894
46.451454 7.292985 6.8661523
46.562111 7.2474179 7.0498958
46.68137 7.2194953 7.1721683
46.806835 7.2030926 7.2544212
46.946728 7.2071791 7.26613
47.100044 7.2275343 7.2221951
47.307323 7.3099012 6.9666891
45.857006 8.2307758 2.7062342
45.907051 7.8912721 3.9815564
45.992279 7.6960716 4.7254333
46.092609 7.5659776 5.2293906
46.193356 7.4571381 5.6541734
46.300587 7.3758221 5.977551
46.409954 7.3091331 6.246789
46.52597 7.2613716 6.4467044
46.645287 7.224185 6.6078091
46.776005 7.2070804 6.6961803
46.915859 7.2038445 6.7345581
47.074928 7.2249794 6.6856785
47.281582 7.3007541 6.4420176
45.867817 8.053751 2.6456475
45.945099 7.7953424 3.6665549
46.041351 7.6266146 4.3417711
46.143135 7.4976668 4.8631048
46.25518 7.4079423 5.2336149
46.364628 7.3267703 5.5703287
46.486546 7.2765942 5.7886767
46.606125 7.2292595 5.9955163
46.742569 7.2114058 6.0907183
46.88253 7.2002435 6.160521
47.047768 7.2221918 6.1061325
47.25386 7.2908936 5.8773479
45.862259 8.3629093 0.60044956
45.891354 7.9093337 2.4539928
45.984592 7.6963153 3.3394663
46.093624 7.5557656 3.9326396
46.204975 7.4434338 4.4112792
46.320541 7.3560686 4.7889867
46.443363 7.2932658 5.0679808
46.568172 7.241972 5.3004541
46.706181 7.2161136 5.4317789
46.847393 7.1976523 5.5335641
47.018345 7.2191849 5.4779944
47.223957 7.2802663 5.2678056
45.851154 8.1012325 0.80063772
45.932587 7.8048868 2.0814979
46.037926 7.6210918 2.8862121
46.149189 7.4828944 3.4973135
46.272373 7.3897653 3.9181972
46.395863 7.311605 4.2752113
46.527519 7.2574949 4.5310574
46.666428 7.2212558 4.7119503
46.814346 7.2019181 4.8223605
46.986355 7.2159152 4.7949481
47.191563 7.2687445 4.6079483
45.872879 7.9318528 0.61965466
45.975468 7.6966043 1.6940141
46.094818 7.5437131 2.4021645
46.21867 7.4273124 2.9475069
46.34399 7.3329611 3.3942392
46.482658 7.2746267 3.6819501
46.622837 7.2269125 3.9223151
46.778118 7.2065954 4.0426497
46.951424 7.2123308 4.049531
47.15638 7.2562294 3.8912115
47.51754 7.4762287 2.9724927
45.917561 7.8164086 0.17545176
46.033833 7.6144838 1.1504693
46.158459 7.4695101 1.8582344
46.292782 7.3683619 2.3609538
46.432892 7.2936296 2.7400725
46.576023 7.2349987 3.0437536
46.738224 7.2117453 3.1840339
46.913158 7.2084198 3.2326436
47.118042 7.2426043 3.1098292
47.467419 7.4412336 2.2379727
46.096249 7.5292735 0.56851625
46.235123 7.4082236 1.1974707
46.377388 7.3148475 1.6892486
46.529591 7.2525039 2.0283551
46.694077 7.2174444 2.2338972
46.871033 7.2040977 2.3336556
47.078953 7.2312822 2.2373941
47.413174 7.4033523 1.4433661
46.317314 7.3426342 0.48904705
46.477566 7.2721162 0.8906827
46.644958 7.2237854 1.1767807
46.825119 7.2002349 1.3347402
47.043114 7.2279525 1.2297378
47.354294 7.3622351 0.58088684
46.781216 7.2059064 0.16911554
47.003235 7.2242465 0.10838127
46.607407 9.1291122 5.4278336
46.571678 9.1136951 5.7095337
46.537125 9.0987701 5.9822626
46.503605 9.0843077 6.2465229
46.471119 9.0702896 6.5026636
46.439651 9.0566988 6.7510157
46.409084 9.0435104 6.9920025
46.3829 9.0310278 7.2224464
46.369434 9.0199833 7.4347124
46.356312 9.0092192 7.6415901
46.3885 9.0027103 7.8013153
46.569008 9.0093393 7.8226891
46.777199 9.0182209 7.8222618
46.99004 9.0273104 7.8216619
47.211353 9.0369234 7.81775
46.746643 9.1542349 1.0557923
46.572914 9.1221886 1.6854448
46.531239 9.1040192 2.0914509
46.491211 9.0865412 2.4820902
46.45266 9.069706 2.8583498
46.415543 9.053484 3.2209473
46.379704 9.0378332 3.570735
46.360168 9.0241013 3.8879318
46.344524 9.0110922 4.1908779
46.329391 8.9984789 4.484663
46.314671 8.9862347 4.7697964
46.300377 8.974349 5.046608
46.286495 8.9628048 5.3154554
46.273006 8.9515877 5.5766773
46.259895 8.9406843 5.8305941
46.247185 8.9300852 6.077466
46.234779 8.9197712 6.3176632
46.22271 8.9097338 6.5514145
46.21096 8.8999615 6.7789745
46.199516 8.8904457 7.0005865
46.188366 8.881175 7.2164803
46.180061 8.8723364 7.4243279
46.174385 8.8638983 7.6246967
46.194324 8.857563 7.7960072
46.36504 8.8625002 7.8232031
46.568974 8.8697538 7.8227215
46.777237 8.877161 7.8222294
46.990078 8.8847351 7.8216295
47.207539 8.8924732 7.8210154
47.430733 8.9004488 7.8195887
46.272854 8.9681787 0.33005905
46.256184 8.9540186 0.74625492
46.240097 8.9403534 1.1479073
46.224514 8.9271526 1.535841
46.209507 8.914402 1.9106016
46.194992 8.9020748 2.2729197
46.180954 8.8901501 2.6234035
46.167625 8.8786287 2.9622478
46.160637 8.8679209 3.2818062
46.153854 8.8575335 3.5918255
46.147274 8.8474503 3.8927279
46.140923 8.8376637 4.1848555
46.134716 8.8281527 4.4686928
46.128681 8.8189096 4.7445345
46.122814 8.8099241 5.0127153
46.117149 8.8011866 5.2735023
46.111633 8.7926855 5.5272455
46.1063 8.7844133 5.7741804
46.101074 8.7763557 6.0146637
46.095985 8.768508 6.2489023
46.091057 8.7608633 6.4770985
46.086224 8.7534103 6.6995592
46.081509 8.7461433 6.91646
46.076946 8.7390575 7.1279726
46.072456 8.7321434 7.334363
46.068081 8.7253952 7.5357819
46.063835 8.7188091 7.7323751
46.165203 8.7186794 7.8237686
46.36504 8.724369 7.8232031
46.568901 8.7301674 7.8227854
46.777271 8.7360992 7.822197
46.990112 8.7421589 7.8215971
47.207386 8.7483387 7.8211479
47.429619 8.7546654 7.8205223
46.070641 8.7657204 0.29238319
46.064468 8.7556591 0.6949749
46.058502 8.7459335 1.0841532
46.052731 8.7365255 1.460578
46.047146 8.7274218 1.8248644
46.041824 8.7186117 2.177454
46.036625 8.7100744 2.5191011
46.031586 8.7017994 2.8502445
46.026741 8.693778 3.1712971
46.022003 8.6859932 3.4828348
46.017399 8.6784363 3.7852154
46.014229 8.6711712 4.0770416
46.012383 8.6641788 4.3589373
46.010632 8.657382 4.6329956
46.008884 8.6507683 4.899641
46.007225 8.6443338 5.159071
46.005573 8.6380682 5.4116688
46.003963 8.6319666 5.6576538
46.00243 8.6260242 5.8972435
46.000904 8.6202316 6.1307631
45.999447 8.6145878 6.3583612
45.997993 8.6090813 6.5803394
45.996578 8.6037102 6.7968645
45.995228 8.5984716 7.0080986
45.993877 8.5933571 7.214304
45.992592 8.5883646 7.4155903
45.991302 8.5834875 7.6121969
46.005039 8.5794039 7.7896461
46.165203 8.5819702 7.8237686
46.36504 8.586237 7.8232031
46.560307 8.59021 7.8306332
46.582279 8.586587 7.9964609
46.576931 8.581872 8.1830091
46.571735 8.5772648 8.3653336
46.566624 8.5727577 8.5436335
46.725071 8.5751352 8.5839729
46.556801 8.5640411 8.8885498
46.663883 8.5643711 8.9675875
46.695 8.561636 9.1053028
46.827305 8.5629883 9.1646528
47.042263 8.5675735 9.1642323
45.95734 8.5693865 0.09579134
45.956139 8.5627584 0.4978447
45.954929 8.5563459 0.88679028
45.953808 8.5501413 1.2631054
45.952675 8.5441332 1.6275427
45.95158 8.538312 1.9805834
45.950562 8.5326729 2.3226871
45.949532 8.5272017 2.6544869
45.948574 8.5218964 2.9763136
45.947601 8.5167456 3.2887297
45.946659 8.5117435 3.5920868
45.945782 8.5068865 3.8867159
45.944889 8.5021648 4.1730947
45.944061 8.4975758 4.4514647
45.943222 8.4931116 4.7222548
45.942402 8.4887676 4.9857225
45.941639 8.4845409 5.2421141
45.940861 8.4804239 5.4918003
45.94014 8.4764156 5.7349567
45.9394 8.4725084 5.9719162
45.938683 8.4687004 6.2028742
45.938015 8.4649887 6.4280167
45.937332 8.4613676 6.6476364
45.936661 8.4578352 6.8618965
45.936043 8.4543886 7.0709553
