# .PCD v0.7 - Point Cloud Data file format
VERSION 0.7
FIELDS x y z
SIZE 4 4 4
TYPE F F F
COUNT 1 1 1
WIDTH 1551
HEIGHT 1
VIEWPOINT 0 0 0 1 0 0 0
POINTS 1551
DATA ascii
2514.6062 -10024.786 681.66162
2517.8357 -9999.0186 588.92023
2516.8689 -9954.8838 431.2998
2515.635 -9898.3438 229.37512
2513.9968 -9823.29 -38.670441
2244.6775 -10029 697.29443
2264.1694 -10034.16 712.86523
2277.7937 -10034.637 712.07916
2291.3782 -10035.111 711.29547
2304.9211 -10035.584 710.51013
2318.4233 -10036.055 709.72314
2331.8682 -10036.506 708.87604
2345.2764 -10036.957 708.0351
2358.6467 -10037.406 707.19653
2371.9788 -10037.854 706.35657
2385.2744 -10038.301 705.52271
2398.5327 -10038.747 704.69116
2411.7532 -10039.19 703.85809
2424.9375 -10039.634 703.03125
2438.0852 -10040.076 702.20679
2451.196 -10040.518 701.38458
2464.27 -10040.956 700.56067
2477.3083 -10041.395 699.74304
2490.3103 -10041.832 698.92761
2503.2764 -10042.269 698.1145
2514.4014 -10038.548 682.1485
2517.8816 -10014.655 592.40686
2516.9302 -9972.7451 436.31677
2515.7144 -9919.1377 236.65765
2514.1042 -9848.1338 -27.791656
2245.2129 -10042.892 696.9574
2259.0166 -10043.343 696.11658
2272.7795 -10043.791 695.27429
2286.5044 -10044.239 694.43835
2300.1902 -10044.687 693.60474
2313.8367 -10045.133 692.77356
2327.4397 -10045.573 691.92871
2340.989 -10045.997 691.03003
2354.5017 -10046.419 690.13385
2367.9766 -10046.84 689.23608
2381.416 -10047.26 688.34485
2394.8191 -10047.68 687.45587
2408.1858 -10048.098 686.56934
2421.5164 -10048.515 685.68524
2434.8118 -10048.932 684.8075
2448.0713 -10049.347 683.93213
2461.2942 -10049.761 683.05518
2474.4822 -10050.174 682.18445
2487.635 -10050.587 681.31616
2500.7517 -10050.997 680.44623
2513.834 -10051.407 679.58258
2517.9282 -10030.108 595.8653
2516.99 -9990.3643 441.26016
2515.792 -9939.6094 243.82059
2514.2085 -9872.5312 -17.117126
2239.2861 -10051.935 678.43262
2253.2485 -10052.358 677.53357
2267.1719 -10052.781 676.63684
2281.0569 -10053.203 675.7428
2294.9045 -10053.625 674.85522
2308.7126 -10054.044 673.96606
2322.1848 -10054.189 672.02466
2335.4927 -10054.19 669.52533
2348.8003 -10054.191 667.026
2362.1082 -10054.193 664.52667
2375.4158 -10054.194 662.02734
2388.7231 -10054.195 659.52814
2402.0305 -10054.196 657.02881
2415.3379 -10054.197 654.52954
2428.645 -10054.198 652.03027
2441.9521 -10054.199 649.53113
2455.259 -10054.2 647.03192
2468.5662 -10054.201 644.53271
2481.873 -10054.202 642.03357
2495.1797 -10054.203 639.53448
2508.4868 -10054.206 637.03955
2517.9761 -10045.381 599.29608
2517.0498 -10007.749 446.14291
2515.8689 -9959.7705 250.88165
2514.312 -9896.499 -6.6214905
2237.083 -10054.145 628.5282
2250.9878 -10054.146 625.91693
2264.8923 -10054.147 623.30579
2278.7971 -10054.148 620.69458
2292.7014 -10054.149 618.08337
2306.606 -10054.15 615.47229
2320.51 -10054.151 612.86108
2334.4143 -10054.152 610.24988
2348.3184 -10054.154 607.63879
2362.2224 -10054.155 605.02783
2376.1262 -10054.156 602.41669
2390.03 -10054.157 599.80566
2403.9336 -10054.158 597.19458
2417.8379 -10054.16 594.58813
2431.7415 -10054.162 591.97723
2445.6448 -10054.163 589.36621
2459.5479 -10054.164 586.75525
2473.4509 -10054.165 584.14441
2487.354 -10054.166 581.53351
2501.2581 -10054.17 578.93195
2515.1616 -10054.173 576.33044
2517.1086 -10024.901 450.96072
2515.9443 -9979.625 257.82849
2514.4133 -9920.0479 3.6899414
2245.8945 -10054.104 561.81384
2260.4517 -10054.105 559.08038
2275.0083 -10054.106 556.34692
2289.5652 -10054.107 553.61353
2304.1218 -10054.109 550.88013
2318.6797 -10054.111 548.15167
2333.2358 -10054.112 545.41833
2347.7922 -10054.113 542.685
2362.3484 -10054.114 539.95166
2376.9045 -10054.116 537.21851
2391.4602 -10054.117 534.48517
2406.0161 -10054.118 531.75189
2420.5718 -10054.119 529.01862
2435.1274 -10054.12 526.28546
2449.6829 -10054.122 523.55225
2464.239 -10054.124 520.82422
2478.7947 -10054.127 518.09625
2493.3511 -10054.13 515.37341
2507.907 -10054.134 512.65063
2517.1663 -10041.825 455.70898
2516.019 -9999.1826 264.67822
2514.5125 -9943.1836 13.8125
2240.3015 -10054.06 491.40585
2255.5752 -10054.061 488.53821
2270.8484 -10054.062 485.67047
2286.1216 -10054.063 482.8028
2301.3945 -10054.064 479.93506
2316.6675 -10054.065 477.0675
2331.9404 -10054.066 474.19998
2347.2131 -10054.068 471.33228
2362.4856 -10054.069 468.46481
2377.7581 -10054.07 465.5972
2393.0305 -10054.071 462.72974
2408.3025 -10054.073 459.86224
2423.5747 -10054.074 456.99481
2438.8474 -10054.076 454.13297
2454.1208 -10054.08 451.27686
2469.3931 -10054.083 448.41519
2484.6658 -10054.087 445.55923
2499.9382 -10054.09 442.70331
2515.2095 -10054.093 439.84183
2516.0928 -10018.448 271.42548
2514.6106 -9965.9229 23.770081
2234.1279 -10054.009 413.70261
2250.1919 -10054.01 410.6868
2266.2559 -10054.012 407.67093
2282.3201 -10054.013 404.65524
2298.3835 -10054.014 401.6394
2314.4473 -10054.016 398.62369
2330.5107 -10054.017 395.608
2346.574 -10054.018 392.59225
2362.6372 -10054.02 389.57666
2378.7002 -10054.021 386.56104
2394.7632 -10054.021 383.54541
2410.8269 -10054.024 380.53601
2426.8914 -10054.028 377.53305
2442.9556 -10054.032 374.53006
2459.0183 -10054.034 371.52087
2475.0815 -10054.038 368.51813
2491.1445 -10054.042 365.51535
2507.2063 -10054.045 362.50635
2516.1646 -10037.428 278.06592
2514.7063 -9988.2725 33.548157
2244.2212 -10053.954 324.33496
2261.1624 -10053.955 321.15497
2278.103 -10053.957 317.97485
2295.0437 -10053.958 314.79486
2311.9844 -10053.959 311.61493
2328.9248 -10053.961 308.43488
2345.865 -10053.962 305.255
2362.8052 -10053.964 302.07516
2379.7463 -10053.966 298.90222
2396.6885 -10053.971 295.73627
2413.6299 -10053.975 292.57043
2430.571 -10053.979 289.40475
2447.5107 -10053.981 286.23203
2464.4509 -10053.985 283.06653
2481.3909 -10053.989 279.90106
2498.3296 -10053.992 276.72867
2515.2686 -10053.996 273.56332
2514.801 -10010.244 43.16983
2237.5608 -10053.892 228.01022
2255.4802 -10053.893 224.64697
2273.3994 -10053.895 221.2838
2291.3184 -10053.896 217.92058
2309.2371 -10053.897 214.55743
2327.1558 -10053.898 211.19426
2345.0771 -10053.902 207.84674
2362.9968 -10053.905 204.49146
2380.9172 -10053.91 201.14415
2398.8372 -10053.914 197.79691
2416.7566 -10053.919 194.44978
2434.6746 -10053.922 191.09494
2452.593 -10053.926 187.74796
2470.511 -10053.931 184.40109
2488.4277 -10053.934 181.0463
2506.3447 -10053.938 177.69963
2514.8936 -10031.846 52.620575
2230.0862 -10053.822 119.88745
2249.1038 -10053.824 116.31863
2268.1211 -10053.825 112.74979
2287.1382 -10053.827 109.18118
2306.1567 -10053.83 105.62119
2325.1768 -10053.835 102.07019
2344.1943 -10053.838 98.510284
2363.2134 -10053.843 94.959595
2382.2317 -10053.847 91.408783
2401.2493 -10053.852 87.858246
2420.2651 -10053.854 84.298798
2439.282 -10053.859 80.748352
2458.2969 -10053.862 77.189026
2477.3125 -10053.867 73.638855
2496.3274 -10053.871 70.088715
2514.9851 -10053.089 61.923004
2241.8923 -10053.745 -6.1630859
2262.1536 -10053.748 -9.9542847
2282.416 -10053.753 -13.735291
2302.678 -10053.758 -17.516174
2322.9373 -10053.761 -21.307007
2343.198 -10053.766 -25.087769
2363.458 -10053.771 -28.868225
2383.7175 -10053.775 -32.648743
2403.9749 -10053.779 -36.439209
2424.2329 -10053.784 -40.219482
2461.2041 -9759.8535 689.79565
2476.3315 -9760.6953 691.56439
2491.2827 -9761.5264 693.30127
2506.0654 -9762.3486 695.01868
2520.4065 -9763.0625 695.94373
2523.821 -9759.8232 665.60431
2254.6655 -9766.7979 704.80994
2271.7507 -9767.6377 706.56982
2288.5125 -9768.4424 708.09601
2305.0442 -9769.2285 709.53546
2321.3899 -9770.0068 710.9588
2337.5527 -9770.7754 712.36627
2353.5359 -9771.5361 713.75806
2369.3403 -9772.2881 715.13055
2384.9746 -9773.0322 716.49573
2400.438 -9773.7686 717.84595
2415.7329 -9774.4961 719.18152
2430.8623 -9775.2168 720.50269
2445.8286 -9775.9287 721.80957
2460.6345 -9776.6338 723.10242
2475.2827 -9777.3311 724.38147
2489.7119 -9778.002 725.48572
2503.9834 -9778.6631 726.55237
2512.4329 -9777.54 712.24768
2520.4065 -9776.1953 695.94373
2523.821 -9773.249 665.60431
2523.5889 -9768.8623 622.4502
2523.342 -9764.1807 576.3858
2523.0781 -9759.1709 527.10126
2273.3896 -9784.3945 736.26758
2289.6282 -9785.0586 737.33984
2305.6946 -9785.7158 738.40442
2321.5833 -9786.3652 739.44611
2337.3032 -9787.0068 740.47668
2352.8555 -9787.6426 741.49255
2368.177 -9788.2568 742.3656
2383.342 -9788.8643 743.22961
2398.3535 -9789.4658 744.08496
2413.2119 -9790.0605 744.92786
2427.9229 -9790.6504 745.76611
2442.4885 -9791.2344 746.59955
2456.9092 -9791.8125 747.42474
2471.1873 -9792.3848 748.24176
2485.3247 -9792.9521 749.05072
2495.8848 -9792.5977 741.13385
2504.251 -9791.6221 727.2533
2512.4329 -9790.5371 712.24768
2520.4065 -9789.3271 695.94373
2523.821 -9786.6758 665.60431
2523.5889 -9782.7275 622.4502
2523.342 -9778.5137 576.3858
2523.0781 -9774.0049 527.10126
2522.7954 -9769.1699 474.2468
2522.4912 -9763.9707 417.41998
2287.438 -9800.4248 759.86963
2303.1121 -9800.9658 760.54773
2318.6287 -9801.501 761.21906
2333.99 -9802.0312 761.88354
2349.2004 -9802.5566 762.54517
2364.2585 -9803.0762 763.19653
2379.168 -9803.5908 763.84155
2393.9331 -9804.1006 764.48389
2408.5522 -9804.6055 765.11621
2423.0295 -9805.1045 765.74255
2437.3687 -9805.5996 766.36633
2451.5681 -9806.0898 766.98047
2465.6318 -9806.5752 767.58887
2478.4705 -9806.8115 765.59241
2487.259 -9806.127 753.80286
2495.8848 -9805.3662 741.13385
2504.251 -9804.499 727.2533
2512.4329 -9803.5352 712.24768
2520.4065 -9802.459 695.94373
2523.821 -9800.1025 665.60431
2523.5889 -9796.5928 622.4502
2523.342 -9792.8477 576.3858
2523.0781 -9788.8389 527.10126
2522.7954 -9784.541 474.2468
2522.4912 -9779.9199 417.41998
2522.1611 -9774.9375 356.14896
2521.8066 -9769.5508 289.90524
2521.4216 -9763.707 218.05022
2298.4929 -9815.4297 778.44312
2313.7988 -9815.8809 778.94165
2328.9556 -9816.3271 779.43518
2343.9653 -9816.7686 779.92389
2358.8325 -9817.2061 780.41156
2373.553 -9817.6396 780.88745
2388.1348 -9818.0684 781.36218
2402.5762 -9818.4932 781.82904
2416.8811 -9818.9141 782.2915
2431.0513 -9819.3311 782.74951
2445.0889 -9819.7441 783.20325
2458.9956 -9820.1533 783.65277
2469.5396 -9819.9404 776.62244
2478.4705 -9819.3994 765.59241
2487.259 -9818.8008 753.80286
2495.8848 -9818.1348 741.13385
2504.251 -9817.376 727.2533
2512.4329 -9816.5322 712.24768
2520.4065 -9815.5908 695.94373
2523.821 -9813.5293 665.60431
2523.5889 -9810.458 622.4502
2523.342 -9807.1807 576.3858
2523.0781 -9803.6738 527.10126
2522.7954 -9799.9131 474.2468
2522.4912 -9795.8691 417.41998
2522.1611 -9791.5098 356.14896
2521.8066 -9786.7959 289.90524
2521.4216 -9781.6836 218.05022
2521.0029 -9776.1182 139.83929
2520.5454 -9770.0381 54.390198
2358.8018 -9844.7412 1020.8408
2371.1184 -9845.0264 1020.8297
2383.325 -9845.3096 1020.821
2395.4241 -9845.5908 1020.8167
2407.4102 -9845.8691 1020.8059
2413.5752 -9845.4541 1011.6381
2349.2249 -9834.9521 863.67615
2363.02 -9835.2715 863.6593
2376.6992 -9835.5898 863.65186
2390.2603 -9835.9043 863.64734
2403.6934 -9836.2158 863.62494
2417.02 -9836.5254 863.62073
2414.7307 -9834.6279 833.32928
2409.739 -9832.252 796.20361
2423.79 -9832.5996 796.53851
2437.7134 -9832.9434 796.87372
2451.1479 -9833.2275 796.41718
2460.4734 -9832.8701 786.96997
2469.5396 -9832.4512 776.62244
2478.4705 -9831.9873 765.59241
2487.259 -9831.4736 753.80286
2495.8848 -9830.9033 741.13385
2504.251 -9830.2529 727.2533
2512.4329 -9829.5293 712.24768
2520.4065 -9828.7227 695.94373
2523.821 -9826.9551 665.60431
2523.5889 -9824.3232 622.4502
2523.342 -9821.5137 576.3858
2523.0781 -9818.5078 527.10126
2522.7954 -9815.2842 474.2468
2522.4912 -9811.8184 417.41998
2522.1611 -9808.082 356.14896
2521.8066 -9804.042 289.90524
2521.4216 -9799.6592 218.05022
2521.0029 -9794.8887 139.83929
2520.5454 -9789.6777 54.390198
2346.3704 -9854.9629 1020.8498
2358.8018 -9855.2031 1020.8408
2371.1184 -9855.4414 1020.8297
2383.325 -9855.6768 1020.821
2395.4241 -9855.9111 1020.8167
2407.4102 -9856.1426 1020.8059
2419.2905 -9856.373 1020.7974
2430.2573 -9856.5176 1019.4636
2428.5256 -9855.3398 996.90717
2363.02 -9847.3125 863.6593
2376.6975 -9847.5771 863.6488
2390.2588 -9847.8389 863.64429
2403.6951 -9848.0986 863.62793
2417.02 -9848.3564 863.62073
2430.2297 -9848.6123 863.61353
2434.6121 -9847.8096 846.11945
2429.6335 -9845.8096 808.58868
2441.6489 -9845.8711 805.21747
2451.1479 -9845.6094 796.41718
2460.4734 -9845.3105 786.96997
2469.5396 -9844.9609 776.62244
2478.4705 -9844.5752 765.59241
2487.259 -9844.1475 753.80286
2495.8848 -9843.6719 741.13385
2504.251 -9843.1299 727.2533
2512.4329 -9842.5273 712.24768
2520.4065 -9841.8545 695.94373
2523.821 -9840.3818 665.60431
2523.5889 -9838.1885 622.4502
2523.342 -9835.8477 576.3858
2523.0781 -9833.3428 527.10126
2522.7954 -9830.6562 474.2468
2522.4912 -9827.7676 417.41998
2522.1611 -9824.6543 356.14896
2521.8066 -9821.2871 289.90524
2521.4216 -9817.6348 218.05022
2521.0029 -9813.6602 139.83929
2520.5454 -9809.3174 54.390198
2333.8293 -9865.2793 1020.8654
2346.3704 -9865.4727 1020.8498
2358.8018 -9865.665 1020.8408
2371.1184 -9865.8555 1020.8297
2383.325 -9866.0449 1020.821
2395.4241 -9866.2324 1020.8167
2407.4102 -9866.417 1020.8059
2419.2905 -9866.6016 1020.7974
2431.0652 -9866.7832 1020.7889
2438.7961 -9866.6338 1014.1624
2437.9683 -9865.749 992.6579
2421.6997 -9863.4834 943.02991
2390.2554 -9859.7744 863.63831
2403.6951 -9859.9824 863.62793
2417.02 -9860.1885 863.62073
2430.2297 -9860.3926 863.61353
2443.3213 -9860.5947 863.59741
2445.3733 -9859.7119 841.04651
2441.6489 -9858.2002 805.21747
2451.1479 -9857.9902 796.41718
2460.4734 -9857.751 786.96997
2469.5396 -9857.4717 776.62244
2478.4705 -9857.1631 765.59241
2487.259 -9856.8203 753.80286
2495.8848 -9856.4404 741.13385
2504.251 -9856.0068 727.2533
2512.4329 -9855.5244 712.24768
2520.4065 -9854.9863 695.94373
2523.821 -9853.8086 665.60431
2523.5889 -9852.0537 622.4502
2523.342 -9850.1807 576.3858
2523.0781 -9848.1768 527.10126
2522.7954 -9846.0283 474.2468
2522.4912 -9843.7178 417.41998
2522.1611 -9841.2256 356.14896
2521.8066 -9838.5322 289.90524
2521.4216 -9835.6113 218.05022
2521.0029 -9832.4307 139.83929
2520.5454 -9828.9561 54.390198
2333.8293 -9875.8379 1020.8654
2346.3721 -9875.9834 1020.8521
2358.8035 -9876.1279 1020.8431
2371.1184 -9876.2705 1020.8297
2383.325 -9876.4121 1020.821
2395.4241 -9876.5527 1020.8167
2407.4102 -9876.6914 1020.8059
2419.2905 -9876.8291 1020.7974
2431.0652 -9876.9658 1020.7889
2442.7314 -9877.1016 1020.774
2444.8452 -9876.6309 1004.4944
2421.6997 -9874.4912 943.02991
2421.5737 -9873.7969 920.27698
2421.4421 -9873.0732 896.54724
2421.3064 -9872.3184 871.77954
2430.2297 -9872.1729 863.61353
2443.3213 -9872.3252 863.59741
2453.3176 -9872.2529 857.4292
2452.8789 -9871.3838 829.02631
2451.1479 -9870.3711 796.41718
2460.4734 -9870.1924 786.96997
2469.5396 -9869.9824 776.62244
2478.4705 -9869.751 765.59241
2487.259 -9869.4941 753.80286
2495.8848 -9869.209 741.13385
2504.251 -9868.8838 727.2533
2512.4329 -9868.5225 712.24768
2520.4065 -9868.1191 695.94373
2523.821 -9867.2354 665.60431
2523.5889 -9865.9189 622.4502
2523.342 -9864.5146 576.3858
2523.0781 -9863.0117 527.10126
2522.7954 -9861.3994 474.2468
2522.4912 -9859.667 417.41998
2522.1611 -9857.7979 356.14896
2521.8066 -9855.7783 289.90524
2521.4216 -9853.5869 218.05022
2521.0029 -9851.2021 139.83929
2520.5454 -9848.5957 54.390198
2321.1619 -9886.2988 1020.8678
2333.8276 -9886.3965 1020.8632
2346.3721 -9886.4941 1020.8521
2358.8035 -9886.5898 1020.8431
2371.1199 -9886.6855 1020.832
2383.325 -9886.7793 1020.821
2395.4241 -9886.873 1020.8167
2407.4089 -9886.9658 1020.8037
2419.2905 -9887.0576 1020.7974
2431.064 -9887.1484 1020.7867
2442.7314 -9887.2393 1020.774
2449.6213 -9887.1289 1012.715
2449.3142 -9886.7012 991.74011
2421.5737 -9885.0361 920.27698
2421.4421 -9884.5537 896.54724
2421.3064 -9884.0498 871.77954
2430.2297 -9883.9541 863.61353
2443.3213 -9884.0547 863.59741
2456.3025 -9884.1553 863.58435
2457.1243 -9883.6426 838.02692
2451.1479 -9882.752 796.41718
2460.4734 -9882.6328 786.96997
2469.5396 -9882.4932 776.62244
2478.4705 -9882.3389 765.59241
2487.259 -9882.168 753.80286
2495.8848 -9881.9775 741.13385
2504.251 -9881.7607 727.2533
2512.4329 -9881.5195 712.24768
2520.4065 -9881.251 695.94373
2523.821 -9880.6611 665.60431
2523.5889 -9879.7842 622.4502
2523.342 -9878.8477 576.3858
2523.0781 -9877.8457 527.10126
2522.7954 -9876.7715 474.2468
2522.4912 -9875.6162 417.41998
2522.1611 -9874.3701 356.14896
2521.8066 -9873.0234 289.90524
2521.4216 -9871.5625 218.05022
2521.0029 -9869.9727 139.83929
2520.5454 -9868.2354 54.390198
2321.1619 -9896.9072 1020.8678
2333.8276 -9896.9561 1020.8632
2346.3721 -9897.0039 1020.8521
2358.8035 -9897.0527 1020.8431
2371.1199 -9897.0996 1020.832
2383.325 -9897.1475 1020.821
2395.4226 -9897.1943 1020.8145
2407.4089 -9897.2402 1020.8037
2419.2905 -9897.2861 1020.7974
2431.064 -9897.332 1020.7867
2442.7314 -9897.377 1020.774
2451.3765 -9897.3594 1015.7358
2451.24 -9897.1494 995.13708
2421.5737 -9896.2754 920.27698
2421.4421 -9896.0342 896.54724
2421.3064 -9895.7822 871.77954
2430.2297 -9895.7344 863.61353
2443.3228 -9895.7852 863.60034
2456.3025 -9895.835 863.58435
2459.7817 -9895.6465 843.66089
2451.1479 -9895.1338 796.41718
2460.4734 -9895.0742 786.96997
2469.5396 -9895.0039 776.62244
2478.4705 -9894.9268 765.59241
2487.259 -9894.8408 753.80286
2495.8848 -9894.7461 741.13385
2504.251 -9894.6377 727.2533
2512.4329 -9894.5176 712.24768
2520.4065 -9894.3828 695.94373
2523.821 -9894.0879 665.60431
2523.5889 -9893.6494 622.4502
2523.342 -9893.1816 576.3858
2523.0781 -9892.6807 527.10126
2522.7954 -9892.1426 474.2468
2522.4912 -9891.5654 417.41998
2522.1611 -9890.9424 356.14896
2521.8066 -9890.2695 289.90524
2521.4216 -9889.5391 218.05022
2521.0029 -9888.7441 139.83929
2520.5454 -9887.875 54.390198
2321.1619 -9907.5146 1020.8678
2333.8259 -9907.5146 1020.8609
2346.3721 -9907.5146 1020.8521
2358.8035 -9907.5146 1020.8431
2371.1199 -9907.5146 1020.832
2383.325 -9907.5146 1020.821
2395.4226 -9907.5146 1020.8145
2407.4089 -9907.5146 1020.8037
2419.2905 -9907.5146 1020.7974
2431.064 -9907.5146 1020.7867
2442.7314 -9907.5146 1020.774
2452.4333 -9907.5146 1017.5549
2452.333 -9907.5146 997.06519
2421.5737 -9907.5146 920.27698
2421.4421 -9907.5146 896.54724
2421.3064 -9907.5146 871.77954
2430.2297 -9907.5146 863.61353
2443.3228 -9907.5146 863.60034
2456.3025 -9907.5146 863.58435
2460.5718 -9907.5146 845.33594
2451.1479 -9907.5146 796.41718
2460.4734 -9907.5146 786.96997
2469.5396 -9907.5146 776.62244
2478.4705 -9907.5146 765.59241
2487.259 -9907.5146 753.80286
2495.8848 -9907.5146 741.13385
2504.251 -9907.5146 727.2533
2512.4329 -9907.5146 712.24768
2520.4065 -9907.5146 695.94373
2523.821 -9907.5146 665.60431
2523.5889 -9907.5146 622.4502
2523.342 -9907.5146 576.3858
2523.0781 -9907.5146 527.10126
2522.7954 -9907.5146 474.2468
2522.4912 -9907.5146 417.41998
2522.1611 -9907.5146 356.14896
2521.8066 -9907.5146 289.90524
2521.4216 -9907.5146 218.05022
2521.0029 -9907.5146 139.83929
2520.5454 -9907.5146 54.390198
2321.1619 -9918.1221 1020.8678
2333.8245 -9918.0732 1020.8588
2346.3721 -9918.0254 1020.8521
2358.8049 -9917.9766 1020.8453
2371.1199 -9917.9297 1020.832
2383.325 -9917.8818 1020.821
2395.4226 -9917.835 1020.8145
2407.4075 -9917.7891 1020.8015
2419.2905 -9917.7432 1020.7974
2431.064 -9917.6973 1020.7867
2442.7329 -9917.6523 1020.7762
2451.4019 -9917.6699 1015.7792
2451.2607 -9917.8789 995.17346
2421.5737 -9918.7539 920.27698
2421.4421 -9918.9951 896.54724
2421.3064 -9919.2471 871.77954
2430.2283 -9919.2949 863.61047
2443.3228 -9919.2441 863.60034
2456.3025 -9919.1943 863.58435
2459.114 -9919.4004 842.24536
2451.1479 -9919.8955 796.41718
2460.4734 -9919.9551 786.96997
2469.5396 -9920.0254 776.62244
2478.4705 -9920.1025 765.59241
2487.259 -9920.1885 753.80286
2495.8848 -9920.2832 741.13385
2504.251 -9920.3916 727.2533
2512.4329 -9920.5117 712.24768
2520.4065 -9920.6465 695.94373
2523.821 -9920.9414 665.60431
2523.5889 -9921.3799 622.4502
2523.342 -9921.8477 576.3858
2523.0781 -9922.3486 527.10126
2522.7954 -9922.8867 474.2468
2522.4912 -9923.4639 417.41998
2522.1611 -9924.0869 356.14896
2521.8066 -9924.7598 289.90524
2521.4216 -9925.4902 218.05022
2521.0029 -9926.2852 139.83929
2520.5454 -9927.1543 54.390198
2321.1619 -9928.7305 1020.8678
2333.8245 -9928.6328 1020.8588
2346.3721 -9928.5352 1020.8521
2358.8049 -9928.4395 1020.8453
2371.1213 -9928.3438 1020.8342
2383.325 -9928.25 1020.821
2395.4226 -9928.1562 1020.8145
2407.4075 -9928.0635 1020.8015
2419.2905 -9927.9717 1020.7974
2431.0625 -9927.8809 1020.7845
2442.7329 -9927.79 1020.7762
2448.9985 -9927.9268 1011.6431
2448.7131 -9928.3545 990.67993
2421.5737 -9929.9932 920.27698
2421.4421 -9930.4756 896.54724
2421.3064 -9930.9795 871.77954
2430.2283 -9931.0762 863.61047
2443.3228 -9930.9746 863.60034
2456.3025 -9930.874 863.58435
2456.6577 -9931.4102 837.03754
2451.1479 -9932.2773 796.41718
2460.4734 -9932.3965 786.96997
2469.5396 -9932.5361 776.62244
2478.4705 -9932.6904 765.59241
2487.259 -9932.8613 753.80286
2495.8848 -9933.0518 741.13385
2504.251 -9933.2686 727.2533
2512.4329 -9933.5098 712.24768
2520.4065 -9933.7783 695.94373
2523.821 -9934.3682 665.60431
2523.5889 -9935.2451 622.4502
2523.342 -9936.1816 576.3858
2523.0781 -9937.1836 527.10126
2522.7954 -9938.2578 474.2468
2522.4912 -9939.4131 417.41998
2522.1611 -9940.6592 356.14896
2521.8066 -9942.0059 289.90524
2521.4216 -9943.4668 218.05022
2521.0029 -9945.0566 139.83929
2520.5454 -9946.7939 54.390198
2333.8228 -9939.1914 1020.8565
2346.3721 -9939.0459 1020.8521
2358.8049 -9938.9014 1020.8453
2371.1213 -9938.7588 1020.8342
2383.325 -9938.6172 1020.821
2395.4211 -9938.4766 1020.8123
2407.4075 -9938.3379 1020.8015
2419.2905 -9938.2002 1020.7974
2431.0625 -9938.0635 1020.7845
2442.7329 -9937.9277 1020.7762
2444.9814 -9938.3906 1004.7289
2421.6997 -9940.5381 943.02991
2421.5737 -9941.2324 920.27698
2421.4421 -9941.9561 896.54724
2421.3064 -9942.7109 871.77954
2430.2283 -9942.8564 863.61047
2443.3228 -9942.7041 863.60034
2451.0615 -9942.9434 852.77661
2450.4697 -9943.8291 823.91852
2451.1479 -9944.6582 796.41718
2460.4734 -9944.8369 786.96997
2469.5396 -9945.0469 776.62244
2478.4705 -9945.2783 765.59241
2487.259 -9945.5352 753.80286
2495.8848 -9945.8203 741.13385
2504.251 -9946.1455 727.2533
2512.4329 -9946.5068 712.24768
2520.4065 -9946.9102 695.94373
2523.821 -9947.7939 665.60431
2523.5889 -9949.1104 622.4502
2523.342 -9950.5146 576.3858
2523.0781 -9952.0176 527.10126
2522.7954 -9953.6299 474.2468
2522.4912 -9955.3623 417.41998
2522.1611 -9957.2314 356.14896
2521.8066 -9959.251 289.90524
2521.4216 -9961.4424 218.05022
2521.0029 -9963.8271 139.83929
2520.5454 -9966.4336 54.390198
2333.8228 -9949.75 1020.8565
2346.3738 -9949.5557 1020.8542
2358.8049 -9949.3633 1020.8453
2371.1213 -9949.1729 1020.8342
2383.3264 -9948.9844 1020.8232
2395.4211 -9948.7979 1020.8123
2407.4075 -9948.6123 1020.8015
2419.2905 -9948.4277 1020.7974
2431.0625 -9948.2461 1020.7845
2438.3315 -9948.4336 1013.3816
2437.5596 -9949.3154 991.95441
2376.6975 -9955.4648 863.6488
2390.2554 -9955.2549 863.63831
2403.6951 -9955.0469 863.62793
2417.0186 -9954.8408 863.61768
2430.2266 -9954.6367 863.60754
2443.3228 -9954.4346 863.60034
2442.4915 -9955.6035 835.10394
2441.6489 -9956.8291 805.21747
2451.1479 -9957.0391 796.41718
2460.4734 -9957.2783 786.96997
2469.5396 -9957.5576 776.62244
2478.4705 -9957.8662 765.59241
2487.259 -9958.209 753.80286
2495.8848 -9958.5889 741.13385
2504.251 -9959.0225 727.2533
2512.4329 -9959.5049 712.24768
2520.4065 -9960.043 695.94373
2523.821 -9961.2207 665.60431
2523.5889 -9962.9756 622.4502
2523.342 -9964.8486 576.3858
2523.0781 -9966.8525 527.10126
2522.7954 -9969.001 474.2468
2522.4912 -9971.3115 417.41998
2522.1611 -9973.8037 356.14896
2521.8066 -9976.4971 289.90524
2521.4216 -9979.418 218.05022
2521.0029 -9982.5986 139.83929
2520.5454 -9986.0732 54.390198
2346.3738 -9960.0664 1020.8542
2358.8066 -9959.8262 1020.8476
2371.1213 -9959.5879 1020.8342
2383.3264 -9959.3516 1020.8232
2395.4211 -9959.1182 1020.8123
2407.4075 -9958.8867 1020.8015
2419.2905 -9958.6562 1020.7974
2428.9482 -9958.6465 1017.3159
2427.3538 -9959.8115 994.93811
2363.02 -9967.7168 863.6593
2376.6975 -9967.4521 863.6488
2390.2554 -9967.1904 863.63831
2403.6951 -9966.9307 863.62793
2417.0186 -9966.6729 863.61768
2430.2266 -9966.418 863.60754
2430.3884 -9967.7314 837.64313
2428.9395 -9969.3057 807.15747
2441.6489 -9969.1582 805.21747
2451.1479 -9969.4199 796.41718
2460.4734 -9969.7188 786.96997
2469.5396 -9970.0684 776.62244
2478.4705 -9970.4541 765.59241
2487.259 -9970.8818 753.80286
2495.8848 -9971.3574 741.13385
2504.251 -9971.8994 727.2533
2512.4329 -9972.502 712.24768
2520.4065 -9973.1748 695.94373
2523.821 -9974.6475 665.60431
2523.5889 -9976.8408 622.4502
2523.342 -9979.1816 576.3858
2523.0781 -9981.6865 527.10126
2522.7954 -9984.373 474.2468
2522.4912 -9987.2617 417.41998
2522.1611 -9990.375 356.14896
2521.8066 -9993.7422 289.90524
2521.4216 -9997.3945 218.05022
2521.0029 -10001.369 139.83929
2520.5454 -10005.712 54.390198
2358.8066 -9970.2881 1020.8476
2371.1213 -9970.0029 1020.8342
2383.3264 -9969.7197 1020.8232
2395.4211 -9969.4385 1020.8123
2407.4075 -9969.1611 1020.8015
2411.3433 -9969.8447 1008.0614
2304.7505 -9985.6592 788.95593
2363.0217 -9979.7568 863.66235
2376.6975 -9979.4404 863.6488
2390.2554 -9979.126 863.63831
2403.6951 -9978.8135 863.62793
2408.4585 -9979.6953 847.32513
2394.7036 -9983.249 794.1972
2408.9119 -9982.8975 794.54346
2422.9873 -9982.5498 794.88318
2436.9351 -9982.2041 795.22314
2450.7549 -9981.8623 795.56006
2460.4734 -9982.1592 786.96997
2469.5396 -9982.5781 776.62244
2478.4705 -9983.042 765.59241
2487.259 -9983.5557 753.80286
2495.8848 -9984.126 741.13385
2504.251 -9984.7764 727.2533
2512.4329 -9985.5 712.24768
2520.4065 -9986.3066 695.94373
2523.821 -9988.0742 665.60431
2523.5889 -9990.7061 622.4502
2523.342 -9993.5156 576.3858
2523.0781 -9996.5215 527.10126
2522.7954 -9999.7451 474.2468
2522.4912 -10003.211 417.41998
2522.1611 -10006.947 356.14896
2521.8066 -10010.987 289.90524
2521.4216 -10015.37 218.05022
2521.0029 -10020.141 139.83929
2520.5454 -10025.352 54.390198
2297.2483 -9999.7812 776.35168
2312.5881 -9999.3291 776.85767
2327.7783 -9998.8818 777.35876
2342.8235 -9998.4385 777.85864
2357.7209 -9997.999 778.34998
2372.4773 -9997.5645 778.84027
2387.0942 -9997.1328 779.32935
2401.5703 -9996.7061 779.81018
2415.9106 -9996.2832 780.2901
2430.1155 -9995.8643 780.76538
2444.1853 -9995.4492 781.23279
2458.1255 -9995.0381 781.69922
2469.5396 -9995.0889 776.62244
2478.4705 -9995.6299 765.59241
2487.259 -9996.2285 753.80286
2495.8848 -9996.8945 741.13385
2504.251 -9997.6533 727.2533
2512.4329 -9998.4971 712.24768
2520.4065 -9999.4385 695.94373
2523.821 -10001.5 665.60431
2523.5889 -10004.571 622.4502
2523.342 -10007.849 576.3858
2523.0781 -10011.355 527.10126
2522.7954 -10015.116 474.2468
2522.4912 -10019.16 417.41998
2522.1611 -10023.52 356.14896
2521.8066 -10028.233 289.90524
2521.4216 -10033.346 218.05022
2521.0029 -10038.911 139.83929
2520.5454 -10044.991 54.390198
2285.9509 -10014.854 757.37158
2301.6821 -10014.308 758.08649
2317.2432 -10013.77 758.77539
2332.6484 -10013.236 759.4574
2347.9019 -10012.708 760.13629
2363.0017 -10012.186 760.80481
2377.9526 -10011.669 761.46667
2392.7561 -10011.157 762.12207
2407.415 -10010.649 762.771
2421.9329 -10010.147 763.41724
2436.3083 -10009.65 764.05371
2450.5449 -10009.157 764.68384
2464.645 -10008.67 765.30811
2478.4705 -10008.218 765.59241
2487.259 -10008.902 753.80286
2495.8848 -10009.663 741.13385
2504.251 -10010.53 727.2533
2512.4329 -10011.494 712.24768
2520.4065 -10012.57 695.94373
2523.821 -10014.927 665.60431
2523.5889 -10018.437 622.4502
2523.342 -10022.182 576.3858
2523.0781 -10026.19 527.10126
2522.7954 -10030.488 474.2468
2522.4912 -10035.109 417.41998
2522.1611 -10040.092 356.14896
2521.8066 -10045.479 289.90524
2521.4216 -10051.322 218.05022
2271.334 -10031.022 732.81384
2287.6367 -10030.354 733.91205
2303.7637 -10029.691 734.99835
2319.718 -10029.037 736.07312
2335.5024 -10028.39 737.13635
2351.1194 -10027.749 738.18848
2366.5718 -10027.115 739.22925
2381.8621 -10026.488 740.25928
2396.9927 -10025.867 741.2785
2411.9082 -10025.267 742.16394
2426.6646 -10024.674 743.02185
2441.2712 -10024.087 743.86743
2455.7341 -10023.506 744.70831
2470.0535 -10022.931 745.54089
2484.23 -10022.361 746.36157
2495.8848 -10022.432 741.13385
2504.251 -10023.407 727.2533
2512.4329 -10024.492 712.24768
2520.4065 -10025.702 695.94373
2523.821 -10028.354 665.60431
2523.5889 -10032.302 622.4502
2523.342 -10036.516 576.3858
2523.0781 -10041.024 527.10126
2522.7954 -10045.859 474.2468
2522.4912 -10051.059 417.41998
2251.6309 -10048.867 699.71112
2268.8108 -10048.019 701.50946
2285.7859 -10047.181 703.28638
2302.5593 -10046.353 705.04205
2319.1355 -10045.534 706.77722
2335.3879 -10044.756 708.24554
2351.4436 -10043.989 709.66949
2367.3208 -10043.23 711.07751
2383.0208 -10042.481 712.46613
2398.55 -10041.74 713.84332
2413.908 -10041.008 715.20154
2429.1008 -10040.282 716.54901
2444.1296 -10039.564 717.88196
2458.9951 -10038.855 719.19653
2473.7031 -10038.153 720.50104
2488.2534 -10037.459 721.78784
2502.6511 -10036.771 723.0647
2512.4329 -10037.489 712.24768
2520.4065 -10038.834 695.94373
2523.821 -10041.78 665.60431
2523.5889 -10046.167 622.4502
2523.342 -10050.849 576.3858
2489.4321 -10054.122 688.45654
2504.2908 -10053.292 690.21649
2518.9807 -10052.473 691.95264
2525.1802 -9758.9209 634.10809
2507.3926 -9758.9229 630.7774
2489.6045 -9758.9258 627.44672
2471.8162 -9758.9287 624.11597
2454.0276 -9758.9316 620.7851
2436.2388 -9758.9346 617.45416
2418.4492 -9758.9375 614.12329
2400.6597 -9758.9404 610.79224
2382.8699 -9758.9434 607.46112
2365.0793 -9758.9463 604.13007
2347.2886 -9758.9492 600.79883
2329.4993 -9758.9502 597.45984
2311.708 -9758.9531 594.12866
2293.9165 -9758.9561 590.79712
2276.1245 -9758.959 587.46582
2258.3323 -9758.9619 584.13422
2533.0222 -9758.9795 539.36035
2516.199 -9758.9824 536.20947
2499.3755 -9758.9854 533.05835
2482.5515 -9758.9883 529.90747
2465.7275 -9758.9902 526.75635
2448.9031 -9758.9932 523.6051
2432.0781 -9758.9961 520.45392
2415.2544 -9758.9971 517.29584
2398.429 -9759 514.14441
2381.6033 -9759.0029 510.99304
2364.7776 -9759.0059 507.84174
2347.9514 -9759.0078 504.69022
2331.1248 -9759.0107 501.5387
2314.2981 -9759.0137 498.38699
2297.4709 -9759.0166 495.23541
2280.6453 -9759.0176 492.07697
2263.8176 -9759.0205 488.92529
2534.9973 -9772.5518 520.72662
2524.0999 -9759.0361 451.36768
2508.1421 -9759.0371 448.3717
2492.1836 -9759.0391 445.38205
2476.2246 -9759.042 442.39227
2460.2656 -9759.0449 439.40244
2444.3062 -9759.0469 436.41254
2428.3467 -9759.0498 433.42276
2412.3867 -9759.0518 430.4328
2396.4265 -9759.0547 427.44272
2380.4663 -9759.0576 424.4527
2364.5054 -9759.0596 421.46252
2348.5444 -9759.0625 418.47241
2332.5845 -9759.0635 415.47604
2316.6233 -9759.0664 412.48581
2300.6614 -9759.0684 409.49548
2284.7009 -9759.0703 406.49911
2268.7388 -9759.0723 403.50876
2252.7764 -9759.0752 400.51825
2535.0647 -9791.1914 527.10266
2531.2283 -9759.082 374.81934
2516.0505 -9759.085 371.97519
2500.8726 -9759.0869 369.13101
2485.6943 -9759.0898 366.28699
2470.5159 -9759.0918 363.44281
2455.3372 -9759.0947 360.59863
2440.1584 -9759.0967 357.75433
2424.979 -9759.0996 354.90991
2409.7998 -9759.1016 352.06558
2394.6201 -9759.1045 349.22125
2379.4412 -9759.1055 346.37122
2364.2612 -9759.1074 343.5267
2349.0808 -9759.1104 340.68222
2333.9014 -9759.1113 337.83209
2318.7207 -9759.1143 334.98749
2303.5398 -9759.1162 332.14279
2288.3586 -9759.1191 329.29813
2273.1785 -9759.1201 326.44791
2257.9968 -9759.1221 323.60309
2535.1333 -9810.1064 533.573
2534.0171 -9768.7422 347.85236
2523.2214 -9759.1279 302.70328
2508.7512 -9759.1309 299.99133
2494.2808 -9759.1328 297.27917
2479.8103 -9759.1348 294.5672
2465.3401 -9759.1367 291.84991
2450.8691 -9759.1387 289.13776
2436.3979 -9759.1406 286.4256
2421.9265 -9759.1436 283.71332
2407.4548 -9759.1455 281.00104
2392.9829 -9759.1475 278.2887
2378.511 -9759.1504 275.57635
2364.0396 -9759.1514 272.85895
2349.5671 -9759.1533 270.14648
2335.0945 -9759.1562 267.43402
2320.6228 -9759.1572 264.71652
2306.1497 -9759.1592 262.00397
2291.6765 -9759.1621 259.29138
2277.2043 -9759.1631 256.57373
2262.7305 -9759.165 253.86108
2535.2031 -9829.3008 540.13257
2534.0708 -9785.3955 352.42245
2529.7534 -9759.168 239.60365
2515.9285 -9759.1689 237.00746
2502.1028 -9759.1709 234.41574
2488.2771 -9759.1729 231.82396
2474.4512 -9759.1758 229.23227
2460.625 -9759.1777 226.64041
2446.7983 -9759.1797 224.04871
2432.9719 -9759.1816 221.45679
2419.145 -9759.1846 218.86488
2405.3188 -9759.1855 216.26834
2391.4917 -9759.1875 213.67639
2377.6643 -9759.1895 211.08441
2363.8379 -9759.1914 208.48784
2350.0103 -9759.1934 205.89577
2336.1824 -9759.1953 203.30362
2322.3552 -9759.1963 200.70697
2308.5271 -9759.1982 198.11482
2294.6985 -9759.2012 195.52258
2280.8713 -9759.2021 192.92587
2267.0425 -9759.2041 190.33357
2253.2134 -9759.2061 187.74126
2535.2737 -9848.7861 546.79785
2534.1255 -9802.2695 357.05289
2533.2222 -9765.6543 207.69606
2522.4929 -9759.2051 179.40085
2509.2571 -9759.207 176.91937
2496.021 -9759.209 174.43771
2482.7847 -9759.2109 171.95616
2469.5483 -9759.2139 169.47453
2456.3118 -9759.2158 166.99283
2443.0757 -9759.2168 164.50693
2429.8386 -9759.2188 162.02524
2416.6016 -9759.2207 159.54341
2403.3643 -9759.2227 157.06158
2390.1277 -9759.2236 154.57558
2376.8901 -9759.2266 152.09366
2363.6523 -9759.2285 149.61185
2350.4155 -9759.2295 147.12582
2337.1772 -9759.2314 144.6438
2323.939 -9759.2334 142.16183
2310.7017 -9759.2344 139.67563
2297.4629 -9759.2363 137.19363
2284.2241 -9759.2393 134.71152
2270.9863 -9759.2402 132.22531
2257.7473 -9759.2422 129.74316
2535.3452 -9868.5654 553.56384
2534.1814 -9819.3662 361.73944
2533.2661 -9780.7041 210.99826
2528.5203 -9759.2383 126.50735
2515.8259 -9759.2402 124.12701
2503.1313 -9759.2422 121.74652
2490.4365 -9759.2441 119.36606
2477.7422 -9759.2451 116.98175
2465.0474 -9759.2471 114.60126
2452.3521 -9759.249 112.22067
2439.6567 -9759.251 109.84018
2426.9619 -9759.252 107.45575
2414.2664 -9759.2539 105.07513
2401.5706 -9759.2568 102.6944
2388.8752 -9759.2578 100.31
2376.1792 -9759.2598 97.929291
2363.4829 -9759.2617 95.548492
2350.7874 -9759.2627 93.16394
2338.0908 -9759.2646 90.783173
2325.394 -9759.2666 88.402283
2312.6982 -9759.2676 86.0177
2300.0012 -9759.2695 83.63681
2287.304 -9759.2715 81.25589
2274.6064 -9759.2734 78.874969
2261.9102 -9759.2744 76.490173
2249.2126 -9759.2764 74.109222
2535.4177 -9888.6465 560.43286
2534.2373 -9836.6934 366.49432
2533.3108 -9795.9336 214.33997
2532.5647 -9763.0996 91.772156
2521.8789 -9759.2695 75.480408
2509.6833 -9759.2715 73.193237
2497.4875 -9759.2734 70.906036
2485.2917 -9759.2754 68.618774
2473.0957 -9759.2773 66.331604
2460.8999 -9759.2783 64.040741
2448.7036 -9759.2803 61.753448
2436.5073 -9759.2822 59.466064
2424.3113 -9759.2832 57.175232
2412.1145 -9759.2852 54.887726
2399.9177 -9759.2871 52.600342
2387.7214 -9759.2881 50.309387
2375.5242 -9759.29 48.021942
2363.3269 -9759.292 45.734406
2351.1292 -9759.2939 43.446899
2338.9326 -9759.2949 41.155884
2326.7349 -9759.2969 38.868317
2314.5369 -9759.2988 36.580627
2302.3398 -9759.2998 34.289551
2290.1416 -9759.3018 32.001892
2277.9434 -9759.3037 29.714233
2265.7461 -9759.3047 27.423096
2253.5474 -9759.3066 25.135315
2535.4922 -9909.0332 567.3999
2534.2942 -9854.2539 371.31335
2533.3562 -9811.3457 217.71741
2532.6013 -9776.8281 94.158478
2527.4736 -9759.2979 30.516418
2515.7393 -9759.2998 28.31546
2504.0046 -9759.3018 26.114471
2492.27 -9759.3037 23.913422
2480.5359 -9759.3047 21.709167
2468.8008 -9759.3066 19.508057
2457.0657 -9759.3086 17.306976
2445.3311 -9759.3096 15.1026
2433.5959 -9759.3105 12.901428
2421.8604 -9759.3125 10.700256
2410.1255 -9759.3135 8.4958801
2398.3896 -9759.3154 6.2946167
2386.6538 -9759.3174 4.0933228
2374.9187 -9759.3184 1.8888855
2363.1826 -9759.3203 -0.31240845
2351.4463 -9759.3223 -2.5137634
2339.7107 -9759.3232 -4.7182617
2327.9744 -9759.3252 -6.9195862
2316.2375 -9759.3271 -9.1210938
2304.5017 -9759.3281 -11.325653
2292.7649 -9759.3301 -13.527039
2281.0278 -9759.332 -15.728546
2269.2917 -9759.333 -17.933167
2257.5544 -9759.334 -20.134735
2535.5669 -9929.7373 574.4823
2534.3518 -9872.0537 376.19775
2533.4019 -9826.9443 221.1402
2532.6384 -9790.7051 96.570892
2532.012 -9760.9521 -5.7036133
2521.354 -9759.3262 -13.292023
2510.0474 -9759.3271 -15.416016
2498.7405 -9759.3281 -17.53714
2487.4331 -9759.3301 -19.658264
2476.1265 -9759.3311 -21.782318
2464.8191 -9759.333 -23.903503
2453.5115 -9759.335 -26.02475
2442.2043 -9759.3359 -28.148895
2430.8967 -9759.3379 -30.270111
2419.5886 -9759.3398 -32.391388
2408.2812 -9759.3398 -34.515564
2396.9731 -9759.3418 -36.636932
2385.6648 -9759.3438 -38.758209
2374.3574 -9759.3447 -40.882416
2363.0488 -9759.3467 -43.003815
2351.5012 -9759.5879 -44.349396
2339.5024 -9760.2461 -44.346252
2327.4512 -9760.9072 -44.343048
2315.3472 -9761.5713 -44.339935
2303.1909 -9762.2373 -44.339569
2290.98 -9762.9072 -44.336365
2278.7151 -9763.5811 -44.33313
2266.397 -9764.2559 -44.332855
2254.0232 -9764.9346 -44.329651
2535.6431 -9950.7646 581.67505
2534.4106 -9890.0947 381.14319
2533.448 -9842.7334 224.60461
2532.6763 -9804.7344 99.006012
2532.043 -9773.5713 -3.9946899
2525.5867 -9761.708 -44.376495
2514.3 -9762.3506 -44.376282
2502.9648 -9762.998 -44.373352
2491.5815 -9763.6475 -44.37027
2480.1499 -9764.2988 -44.370117
2468.6689 -9764.9541 -44.367004
2457.1387 -9765.6123 -44.363953
2445.5588 -9766.2725 -44.36084
2433.9297 -9766.9355 -44.360657
2422.2498 -9767.6025 -44.357513
2410.5195 -9768.2715 -44.354431
2398.738 -9768.9443 -44.351318
2386.9062 -9769.6182 -44.351074
2375.0222 -9770.2969 -44.347931
2363.0862 -9770.9775 -44.344788
2351.0989 -9771.6611 -44.344543
2339.0583 -9772.3477 -44.341309
2326.9646 -9773.0381 -44.338104
2314.8176 -9773.7314 -44.334869
2302.6182 -9774.4268 -44.334686
2290.3638 -9775.126 -44.331421
2278.0549 -9775.8281 -44.328156
2265.6914 -9776.5342 -44.32489
2253.2739 -9777.2412 -44.324615
2535.7202 -9972.123 588.98083
2534.4697 -9908.3848 386.1626
2533.4949 -9858.7168 228.1116
2532.7141 -9818.9189 101.47171
2532.0742 -9786.3174 -2.2684937
2525.7756 -9773.4424 -44.374725
2514.4512 -9774.1143 -44.371704
2503.0786 -9774.7881 -44.368591
2491.6572 -9775.4648 -44.365509
2480.1875 -9776.1436 -44.365356
2468.6682 -9776.8271 -44.362305
2457.0989 -9777.5127 -44.359192
2445.48 -9778.2012 -44.356049
2433.8113 -9778.8916 -44.355896
2422.0916 -9779.5869 -44.352722
2410.3208 -9780.2842 -44.34964
2398.499 -9780.9854 -44.346436
2386.6262 -9781.6885 -44.346191
2374.7009 -9782.3955 -44.342987
2362.7231 -9783.1055 -44.339844
2350.6931 -9783.8184 -44.336639
2338.6108 -9784.5332 -44.336395
2326.4746 -9785.2529 -44.333099
2314.2844 -9785.9756 -44.329895
2302.0415 -9786.7002 -44.329681
2289.7432 -9787.4287 -44.326416
2277.3901 -9788.1611 -44.32309
2264.9819 -9788.8965 -44.319824
2252.5198 -9789.6348 -44.319519
2535.7993 -9993.8164 596.39453
2534.5298 -9926.9297 391.25137
2533.5427 -9874.8945 231.65701
2532.7524 -9833.2607 103.96472
2532.1057 -9799.1914 -0.52496338
2525.9653 -9785.2568 -44.369965
2514.6035 -9785.9551 -44.366882
2503.1931 -9786.6572 -44.363953
2491.7336 -9787.3623 -44.36084
2480.2251 -9788.0693 -44.357666
2468.6672 -9788.7793 -44.357513
2457.0591 -9789.4932 -44.354401
2445.4004 -9790.2109 -44.351349
2433.6921 -9790.9297 -44.351044
2421.9321 -9791.6533 -44.347961
2410.1208 -9792.3789 -44.344757
2398.2581 -9793.1094 -44.341522
2386.3442 -9793.8408 -44.341278
2374.3772 -9794.5771 -44.338074
2362.3579 -9795.3154 -44.3349
2350.2854 -9796.0586 -44.331696
2338.1604 -9796.8027 -44.331421
2325.981 -9797.5518 -44.328156
2313.7476 -9798.3047 -44.32489
2301.4609 -9799.0596 -44.324646
2289.1184 -9799.8184 -44.32132
2276.7207 -9800.5811 -44.317993
2264.2676 -9801.3467 -44.314667
2251.76 -9802.1152 -44.314423
2535.8789 -10015.858 603.93445
2534.5906 -9945.7334 396.41135
2533.5906 -9891.2744 235.25104
2532.791 -9847.7627 106.48557
2532.1375 -9812.1973 1.2362671
2526.1562 -9797.1504 -44.365295
2514.7568 -9797.877 -44.362244
2503.3083 -9798.6064 -44.359131
2491.8105 -9799.3389 -44.356018
2480.2632 -9800.0752 -44.352875
2468.6663 -9800.8135 -44.352783
2457.0188 -9801.5557 -44.349548
2445.3206 -9802.3018 -44.346375
2433.572 -9803.0498 -44.346161
2421.7717 -9803.8018 -44.343048
2409.9197 -9804.5566 -44.339874
2398.0156 -9805.3154 -44.336639
2386.0603 -9806.0771 -44.336426
2374.0515 -9806.8418 -44.33313
2361.9897 -9807.6113 -44.329895
2349.8748 -9808.3828 -44.32666
2337.7068 -9809.1582 -44.326355
2325.4841 -9809.9365 -44.32309
2313.207 -9810.7197 -44.319855
2300.875 -9811.5059 -44.316559
2288.489 -9812.2939 -44.316284
2276.0466 -9813.0869 -44.312866
2263.5483 -9813.8838 -44.309509
2250.9937 -9814.6836 -44.306244
2535.96 -10038.256 611.59576
2534.6523 -9964.8008 401.6438
2533.6392 -9907.8584 238.89
2532.8303 -9862.4268 109.03482
2532.1699 -9825.334 3.0153809
2526.3486 -9809.123 -44.360535
2514.9111 -9809.8779 -44.357452
2503.4243 -9810.6357 -44.35437
2491.8879 -9811.3975 -44.351257
2480.3015 -9812.1621 -44.348083
2468.6653 -9812.9287 -44.347778
2456.978 -9813.7002 -44.344727
2445.2397 -9814.4746 -44.341553
2433.4504 -9815.2529 -44.338318
2421.6099 -9816.0332 -44.338074
2409.717 -9816.8184 -44.3349
2397.7715 -9817.6064 -44.331604
2385.7737 -9818.3984 -44.32843
2373.7234 -9819.1924 -44.328156
2361.6191 -9819.9912 -44.324829
2349.4612 -9820.7939 -44.321625
2337.2502 -9821.5986 -44.32135
2324.9836 -9822.4082 -44.318054
2312.6626 -9823.2217 -44.314728
2300.2861 -9824.0381 -44.311401
2287.8555 -9824.8574 -44.311096
2275.3677 -9825.6816 -44.30777
2262.8237 -9826.5098 -44.304321
2250.2231 -9827.3408 -44.300995
2534.7148 -9984.1387 406.95032
2533.6882 -9924.6514 242.57465
2532.8699 -9877.2568 111.61264
2532.2024 -9838.6064 4.8127441
2526.5427 -9821.1758 -44.358673
2515.0669 -9821.96 -44.355591
2503.5417 -9822.7461 -44.352448
2491.9658 -9823.5381 -44.346405
2480.3406 -9824.3301 -44.346191
2468.6646 -9825.127 -44.342987
2456.9373 -9825.9277 -44.339844
2445.1587 -9826.7314 -44.33667
2433.3286 -9827.5391 -44.333435
2421.4473 -9828.3496 -44.333221
2409.5129 -9829.1641 -44.329865
2397.5259 -9829.9824 -44.326691
2385.4858 -9830.8047 -44.323395
2373.3931 -9831.6289 -44.32312
2361.2461 -9832.458 -44.319824
2349.0449 -9833.291 -44.316528
2336.7903 -9834.126 -44.316284
2324.48 -9834.9668 -44.312927
2312.1143 -9835.8105 -44.30957
2299.6934 -9836.6592 -44.306213
2287.2173 -9837.5088 -44.305939
2274.6841 -9838.3652 -44.302612
2262.0942 -9839.2246 -44.299164
2249.4473 -9840.0879 -44.295776
2534.7783 -10003.751 412.33255
2533.738 -9941.6562 246.30585
2532.9097 -9892.2549 114.21979
2532.2354 -9852.0146 6.6286621
2526.7375 -9833.3115 -44.353943
2515.2234 -9834.124 -44.350769
2503.6592 -9834.9395 -44.347595
2492.0447 -9835.7598 -44.344452
2480.3796 -9836.582 -44.341278
2468.6636 -9837.4092 -44.338135
2456.896 -9838.2393 -44.3349
2445.0771 -9839.0732 -44.331665
2433.2061 -9839.9102 -44.3284
2421.2827 -9840.752 -44.325165
2409.3074 -9841.5957 -44.324921
2397.2783 -9842.4443 -44.321716
2385.1958 -9843.2969 -44.31839
2373.0605 -9844.1514 -44.318024
2360.8704 -9845.0117 -44.314789
2348.6255 -9845.875 -44.311432
2336.3262 -9846.7432 -44.308105
2323.9724 -9847.6133 -44.307831
2311.5623 -9848.4893 -44.304443
2299.0962 -9849.3682 -44.301025
2286.5747 -9850.251 -44.30072
2273.9956 -9851.1377 -44.297333
2261.3594 -9852.0293 -44.293884
2248.6655 -9852.9248 -44.290497
2534.8428 -10023.646 417.79205
2533.7883 -9958.877 250.08446
2532.9504 -9907.4238 116.8566
2532.2686 -9865.5625 8.4632568
2526.9338 -9845.5293 -44.349091
2515.3809 -9846.3711 -44.345947
2503.7776 -9847.2168 -44.342743
2492.1238 -9848.0654 -44.339569
2480.4187 -9848.918 -44.336365
2468.6626 -9849.7744 -44.33316
2456.8547 -9850.6348 -44.329956
2444.9949 -9851.499 -44.32666
2433.0825 -9852.3672 -44.323425
2421.1177 -9853.2383 -44.32016
2409.1003 -9854.1133 -44.319916
2397.0291 -9854.9922 -44.31665
2384.9041 -9855.876 -44.313293
2372.7256 -9856.7617 -44.312988
2360.4919 -9857.6523 -44.309723
2348.2034 -9858.5479 -44.306335
2335.8599 -9859.4473 -44.302979
2323.4614 -9860.3496 -44.302612
2311.0063 -9861.2568 -44.299255
2298.4946 -9862.168 -44.295837
2285.9275 -9863.083 -44.295502
2273.3022 -9864.002 -44.292053
2260.6194 -9864.9258 -44.288574
2247.8787 -9865.8545 -44.285156
2534.908 -10043.829 423.33051
2533.8394 -9976.3184 253.91142
2532.9912 -9922.7676 119.52377
2532.302 -9879.25 10.317017
2527.1313 -9857.8311 -44.344147
2515.5396 -9858.7021 -44.341003
2503.8967 -9859.5771 -44.33783
2492.2031 -9860.4561 -44.334625
2480.4583 -9861.3389 -44.331421
2468.6616 -9862.2256 -44.328156
2456.813 -9863.1162 -44.324982
2444.9121 -9864.0107 -44.321686
2432.9583 -9864.9092 -44.318329
2420.9517 -9865.8125 -44.315125
2408.8921 -9866.7178 -44.314819
2396.7781 -9867.6279 -44.311493
2384.6101 -9868.543 -44.308167
2372.3875 -9869.4619 -44.304779
2360.1108 -9870.3828 -44.304504
2347.7783 -9871.3105 -44.301056
2335.3901 -9872.2412 -44.297791
2322.9468 -9873.1758 -44.297424
2310.4463 -9874.1152 -44.293945
2297.8892 -9875.0586 -44.290558
2285.2747 -9876.0068 -44.287109
2272.6038 -9876.958 -44.286804
2259.874 -9877.915 -44.283295
2533.8911 -9993.9844 257.78766
2533.0327 -9938.2871 122.22168
2532.3359 -9893.0811 12.190094
2527.3303 -9870.2158 -44.339294
2515.699 -9871.1172 -44.336121
2504.0168 -9872.0225 -44.332916
2492.2834 -9872.9326 -44.329681
2480.498 -9873.8457 -44.326447
2468.6606 -9874.7627 -44.323212
2456.771 -9875.6846 -44.319885
2444.8286 -9876.6104 -44.31662
2432.8333 -9877.54 -44.313324
2420.7842 -9878.4736 -44.310028
2408.6821 -9879.4102 -44.309692
2396.5254 -9880.3525 -44.306335
2384.314 -9881.2988 -44.303009
2372.0479 -9882.249 -44.299622
2359.7273 -9883.2031 -44.299286
2347.3501 -9884.1621 -44.295959
2334.917 -9885.126 -44.292511
2322.4287 -9886.0928 -44.292114
2309.8823 -9887.0645 -44.288757
2297.2791 -9888.042 -44.285278
2284.6182 -9889.0225 -44.28186
2271.9004 -9890.0068 -44.281464
2259.1233 -9890.9971 -44.278015
2533.9434 -10011.879 261.71411
2533.0745 -9953.9873 124.95093
2532.3706 -9907.0566 14.079559
2527.531 -9882.6855 -44.337341
2515.8604 -9883.6172 -44.334106
2504.1382 -9884.5527 -44.330902
2492.3645 -9885.4932 -44.327606
2480.5386 -9886.4375 -44.324371
2468.6604 -9887.3857 -44.321106
2456.7292 -9888.3389 -44.317871
2444.7454 -9889.2959 -44.314575
2432.7078 -9890.2568 -44.311218
2420.6165 -9891.2227 -44.307922
2408.4709 -9892.1924 -44.304596
2396.271 -9893.166 -44.301178
2384.0161 -9894.1445 -44.297791
2371.7058 -9895.1279 -44.294434
2359.3408 -9896.1143 -44.294037
2346.9189 -9897.1055 -44.290649
2334.4407 -9898.1016 -44.287231
2321.9058 -9899.1025 -44.283813
2309.3145 -9900.1074 -44.283356
2296.6648 -9901.1172 -44.279999
2283.957 -9902.1318 -44.276428
2271.1909 -9903.1514 -44.272949
2258.3672 -9904.1738 -44.272552
2533.9966 -10030.008 265.69183
2533.1169 -9969.8711 127.71191
2532.4053 -9921.1807 15.99231
2527.7327 -9895.2412 -44.332397
2516.0222 -9896.2041 -44.329132
2504.26 -9897.1709 -44.325867
2492.4456 -9898.1426 -44.322632
2480.5789 -9899.1182 -44.319336
2468.6594 -9900.0977 -44.316101
2456.6868 -9901.082 -44.312744
2444.6606 -9902.0713 -44.309418
2432.5808 -9903.0645 -44.306061
2420.4468 -9904.0615 -44.302795
2408.2581 -9905.0635 -44.299377
2396.0146 -9906.0703 -44.295959
2383.7158 -9907.0811 -44.292572
2371.3613 -9908.0977 -44.289185
2358.9517 -9909.1162 -44.288818
2346.4846 -9910.1416 -44.28537
2333.9609 -9911.1709 -44.281982
2321.3799 -9912.2051 -44.278473
2308.7424 -9913.2432 -44.278076
2296.0459 -9914.2871 -44.274506
2283.291 -9915.335 -44.271027
2270.4773 -9916.3887 -44.267487
2257.6057 -9917.4453 -44.26709
2534.0503 -10048.374 269.72171
2533.1599 -9985.9414 130.5054
2532.4402 -9935.4541 17.925385
2527.9358 -9907.8838 -44.327393
2516.1851 -9908.8779 -44.324127
2504.3823 -9909.876 -44.320831
2492.5273 -9910.8789 -44.317596
2480.6194 -9911.8867 -44.31427
2468.6584 -9912.8984 -44.310944
2456.644 -9913.915 -44.307617
2444.5757 -9914.9355 -44.30426
2432.4531 -9915.9619 -44.300873
2420.2759 -9916.9912 -44.297485
2408.0439 -9918.0264 -44.294159
2395.7566 -9919.0654 -44.290802
