# .PCD v0.7 - Point Cloud Data file format
VERSION 0.7
FIELDS x y z
SIZE 4 4 4
TYPE F F F
COUNT 1 1 1
WIDTH 1611
HEIGHT 1
VIEWPOINT 0 0 0 1 0 0 0
POINTS 1611
DATA ascii
243.23688 250.2448 169.68347
247.60605 244.99124 181.08337
252.30569 241.31682 191.79684
256.96948 237.67491 202.42502
261.59677 234.0614 212.97011
266.18713 230.4724 223.43445
270.74292 226.91486 233.81645
275.46338 224.09998 243.89105
280.35812 222.01434 253.68475
285.2316 219.94177 263.43277
290.08289 217.87863 273.13638
294.9122 215.82471 282.79611
299.71967 213.78024 292.41205
304.56555 211.93558 301.93549
309.74634 211.2012 311.14716
314.91864 210.46806 320.34372
320.08252 209.73605 329.52533
325.23801 209.00531 338.69199
330.3851 208.27573 347.84372
335.52383 207.54727 356.98065
341.02612 207.85982 365.90793
346.66739 208.54398 374.77563
352.31729 209.22928 383.65683
357.97711 209.91896 392.55112
363.64432 210.60626 401.45963
369.32022 211.29468 410.38174
375.66287 213.65497 419.10522
382.13403 216.26562 427.84677
388.64276 218.89139 436.63907
395.18942 221.53247 445.48264
401.94855 224.60593 454.34155
410.02216 230.69272 463.03036
418.20267 236.8577 471.83618
426.49524 243.10959 480.76068
438.84363 258.36731 489.38919
210.82446 327.74329 29.927826
213.24298 308.50153 49.510803
216.81046 296.18884 65.408875
220.75671 286.44452 79.86264
224.62561 276.89145 94.032867
228.80847 269.31262 107.13086
233.27348 263.40555 119.34799
237.6846 257.5748 131.4137
242.04108 251.81125 143.33392
246.34384 246.11386 155.11119
251.04263 242.29303 166.03195
255.73499 238.62881 176.81544
260.39056 234.99335 187.51434
265.00873 231.38263 198.13089
269.59189 227.80371 208.66341
274.23996 224.61395 218.98961
279.16104 222.52109 228.88435
284.05853 220.43428 238.73489
288.93469 218.36053 248.53934
293.78964 216.29974 258.29797
298.62158 214.24487 268.01343
303.43155 212.19928 277.68475
308.60446 211.36421 286.98276
313.7984 210.62431 296.23889
318.98489 209.88913 305.47879
324.16296 209.15523 314.70361
329.33255 208.42239 323.91345
334.49374 207.69083 333.10825
339.92035 207.72873 342.1236
345.58273 208.41547 351.0076
351.25378 209.10329 359.90518
356.93353 209.79211 368.81644
362.62338 210.48553 377.74078
368.32068 211.17651 386.67953
374.55518 213.21396 395.42557
381.04611 215.83263 404.12936
387.57489 218.46648 412.88391
394.14185 221.1158 421.68961
400.74731 223.78064 430.547
408.79382 229.77606 439.11475
416.99258 235.95731 447.78607
425.30255 242.22237 456.57507
437.03363 256.07083 464.93799
210.04422 333.81998 -1.6349487
212.50153 314.27209 18.745117
215.59656 299.15326 36.498779
219.58258 289.31119 51.34201
223.48906 279.65942 65.894073
227.49799 271.02521 79.769318
231.99707 265.07318 92.227295
236.4406 259.19458 104.53152
240.8306 253.39197 116.68324
245.16621 247.65617 128.68861
249.76663 243.27919 140.00348
254.48795 239.59247 150.9449
259.17108 235.93106 161.80157
263.81836 232.30206 172.57146
268.42828 228.69789 183.25842
273.00522 225.13257 193.85802
277.95187 223.02896 203.85625
282.8757 220.93498 213.80849
287.77698 218.85056 223.71512
292.65576 216.77563 233.57639
297.51233 214.71025 243.39264
302.3468 212.6543 253.16422
307.45184 211.52509 262.61481
312.66983 210.78546 271.92914
317.87921 210.04698 281.22818
323.07886 209.3063 290.51282
328.27112 208.57033 299.78125
333.4549 207.83553 309.03458
338.80472 207.5932 318.15445
344.48959 208.286 327.05383
350.18198 208.97635 335.96777
355.88312 209.66783 344.89542
361.59442 210.36385 353.83618
367.31326 211.05743 362.79153
373.43958 212.76985 371.57742
379.95044 215.39653 380.24277
386.49936 218.03857 388.95874
393.08673 220.69617 397.72583
399.7128 223.36929 406.54456
407.55957 228.8575 415.0531
415.77515 235.05145 423.5885
424.10248 241.3297 432.24005
435.21777 253.76688 440.40845
214.36539 302.15994 7.1765747
218.39108 292.21405 22.421204
222.33751 282.47015 37.360382
226.20712 272.92206 52.003479
230.70567 266.76041 64.789368
235.18307 260.83716 77.335388
239.60616 254.99088 89.724838
243.97418 249.21234 101.96436
248.47751 244.27563 113.70718
253.22815 240.56595 124.80934
257.94019 236.88203 135.82512
262.61594 233.2309 146.75224
267.25394 229.60477 157.59499
271.85654 226.01077 168.35117
276.73148 223.54149 178.59625
281.68091 221.43666 188.65282
286.60748 219.34143 198.66309
291.51147 217.25589 208.62732
296.39297 215.17996 218.54587
301.25211 213.11349 228.41899
306.2894 211.68729 238.03973
311.53052 210.94437 247.41394
316.76294 210.2027 256.77261
321.98672 209.46225 266.11584
327.20187 208.72299 275.44366
332.40851 207.98499 284.7562
337.68161 207.46002 293.9967
343.38663 208.15196 302.91312
349.10178 208.84842 311.84253
354.82449 209.54256 320.78653
360.55609 210.23769 329.74445
366.29657 210.93391 338.71628
372.31607 212.32257 347.55911
378.84689 214.95728 356.18509
385.41757 217.61118 364.86108
392.02548 220.27699 373.5889
398.6709 222.95502 382.3688
406.31778 227.93326 390.84442
414.54865 234.13635 399.24252
422.89331 240.42776 407.75461
433.39612 251.45557 415.80023
446.73401 268.54507 423.3707
221.16977 285.32037 8.4253235
225.07617 275.66946 23.461334
229.39914 268.46735 37.02887
233.91086 262.49896 49.821411
238.36749 256.60837 62.453339
242.76834 250.78656 74.931519
247.17509 245.28224 87.13913
251.95538 241.54947 98.404694
256.69666 237.84274 109.58223
261.40121 234.16907 120.66939
266.0676 230.5209 131.67036
270.69821 226.905 142.58321
275.49973 224.05887 153.10103
280.47498 221.94299 163.26349
285.42725 219.83698 173.37891
290.35657 217.74063 183.44756
295.26324 215.65396 193.46988
300.14847 213.58043 203.44482
305.11819 211.85452 213.25365
310.38144 211.10468 222.68961
315.63715 210.35971 232.10867
320.88409 209.61597 241.5121
326.12241 208.87352 250.89999
331.35199 208.13211 260.2724
336.573 207.39209 269.62927
342.27625 208.02042 278.58142
348.01306 208.71956 287.52704
353.75745 209.41623 296.48743
359.51086 210.11403 305.46185
365.27319 210.81287 314.45023
371.18585 211.8756 323.36777
377.73688 214.51851 331.95377
384.32651 217.17705 340.59036
390.95508 219.85129 349.27795
397.62146 222.53773 358.01779
405.0668 226.99971 366.48792
413.3161 233.21922 374.74585
421.67834 239.52396 383.11676
431.56354 249.12537 391.11462
444.89496 266.21198 398.24591
228.07712 270.19458 8.9398804
232.62369 264.18018 21.983978
237.11438 258.24475 34.86322
241.54855 252.37897 47.58493
245.92807 246.58548 60.149872
250.6694 242.54321 71.726685
255.44026 238.81339 83.068756
260.17401 235.117 94.318573
264.86914 231.44632 105.48065
269.5271 227.80473 116.55434
274.25748 224.58466 127.36578
279.25781 222.45403 137.63725
284.23596 220.33704 147.85938
289.19205 218.23338 158.03253
294.12415 216.13586 168.16011
299.03351 214.04811 178.24098
303.93579 212.0195 188.25626
309.22372 211.26994 197.75226
314.50287 210.52167 207.23235
319.77322 209.77458 216.69673
325.03485 209.02876 226.14542
330.28772 208.28418 235.57835
335.53186 207.54083 244.99568
341.15707 207.88779 254.05746
346.9144 208.58607 263.0202
352.68198 209.28893 271.99591
358.45737 209.98944 280.98676
364.24173 210.69098 289.99164
370.04608 211.42188 299.0032
376.6174 214.073 307.54837
383.22757 216.73984 316.14404
389.87692 219.42245 324.79065
396.56433 222.1174 333.48953
403.80969 226.0641 341.98105
412.07596 232.29651 350.09744
420.45572 238.61453 358.3252
429.71851 246.77252 366.353
443.04996 263.87134 373.03882
235.8465 259.90039 6.9488525
240.31448 253.98997 19.918976
244.72797 248.1568 32.726105
249.37007 243.54723 44.771118
254.17088 239.79402 56.280609
258.93414 236.07471 67.695831
263.65839 232.38127 79.02182
268.34497 228.71735 90.257431
273.0025 225.11168 101.39023
278.03027 222.97354 111.76906
283.03458 220.8454 122.09941
288.01556 218.72714 132.38168
292.97339 216.61871 142.6161
297.90814 214.52016 152.80295
302.8201 212.43124 162.94272
308.0549 211.43306 172.60161
313.3577 210.6814 182.14346
318.65164 209.93094 191.66949
323.93674 209.18182 201.1795
329.21304 208.43385 210.67375
334.48056 207.68727 220.15213
340.02899 207.7541 229.33875
345.80832 208.45505 238.31779
351.59799 209.16066 247.30971
357.39548 209.86375 256.31705
363.20203 210.56805 265.33838
369.01767 211.27335 274.3739
375.48984 213.62419 282.96637
382.12067 216.29941 291.52026
388.79092 218.99054 300.12506
395.49951 221.694 308.78217
402.54486 225.1227 317.32309
410.82654 231.36432 325.29678
419.22388 237.69566 333.37943
427.86923 244.41597 341.51215
441.19888 261.52298 347.74899
243.51294 249.74249 4.984314
248.05713 244.56181 17.533661
252.88828 240.78491 29.213409
257.68045 237.03857 40.79892
262.43506 233.32597 52.289368
267.1507 229.63939 63.68988
271.82974 225.98586 74.997681
276.79016 223.49435 85.658813
281.82086 221.35492 96.098984
286.82803 219.22556 106.49033
291.81177 217.10609 116.83308
296.77231 214.9966 127.12756
301.71091 212.90047 137.37267
306.87708 211.60107 147.23215
312.20264 210.8425 156.83804
317.52036 210.08871 166.4263
322.82922 209.33621 175.99849
328.12915 208.58498 185.55466
333.42023 207.83495 195.09486
338.89197 207.61934 204.42307
344.69345 208.32306 213.41832
350.50403 209.02777 222.42772
356.32379 209.73366 231.45134
362.15265 210.44058 240.48912
367.99213 211.15224 249.54005
374.3541 213.17223 258.20575
381.00565 215.85577 266.71707
387.69699 218.5554 275.27927
394.42838 221.27119 283.8927
401.27063 224.1718 292.51346
409.57092 230.43007 300.34088
417.9859 236.77475 308.27652
426.51965 243.21162 316.32162
439.34174 259.16696 322.37598
251.59224 241.78622 1.8627014
256.41467 238.01622 13.619598
261.19904 234.28044 25.279327
265.94406 230.57092 36.847504
270.65204 226.89484 48.320984
275.53827 224.01997 59.301453
280.5957 221.86922 69.853119
285.62933 219.72861 80.355103
290.63931 217.5981 90.80777
295.62692 215.48111 101.20979
300.59018 213.37048 111.56496
305.68793 211.76704 121.64403
311.0387 211.00859 131.3116
316.38049 210.25139 140.96301
321.71329 209.49548 150.59807
327.03711 208.74089 160.2169
332.35196 207.98752 169.81963
337.74585 207.48361 179.30803
343.56961 208.18993 188.31949
349.40259 208.89737 197.34518
355.24481 209.60593 206.38518
361.09625 210.31567 215.43945
366.95697 211.02652 224.508
373.21005 212.71692 233.26459
379.88254 215.40895 241.73248
386.59503 218.11711 250.25119
393.34787 220.84152 258.82111
400.13995 223.57874 267.44379
408.30746 229.48996 275.22906
416.74017 235.84811 283.01559
425.29059 242.29504 290.9108
437.47845 256.8031 296.91946
259.95016 235.24484 -2.0125732
264.72491 231.51218 9.7260437
269.46112 227.80952 21.370117
274.27448 224.55067 32.69342
279.35889 222.38849 43.358154
284.42032 220.24017 53.970551
289.45685 218.09836 64.534882
294.46967 215.96658 75.049469
299.45892 213.84482 85.51474
304.4884 211.93446 95.832932
309.86349 211.17253 105.56448
315.22949 210.41196 115.27956
320.58646 209.65259 124.9783
325.93436 208.89456 134.66058
331.27319 208.13776 144.32652
336.60303 207.38222 153.97614
342.43677 208.05576 163.01888
348.2923 208.76599 172.06079
354.1572 209.47728 181.11716
360.03131 210.1897 190.18779
365.91479 210.90327 199.27292
372.05765 212.25824 208.14098
378.75259 214.9624 216.56326
385.48499 217.67555 225.03891
392.2594 220.40877 233.56432
399.0733 223.15479 242.14258
407.03448 228.54019 249.96086
415.48492 234.9118 257.59631
424.05539 241.37646 265.33752
435.60205 254.4157 271.3833
272.99969 225.09016 5.8290405
278.11136 222.91632 16.608612
283.19879 220.75284 27.337036
288.26208 218.59967 38.014557
293.30142 216.45667 48.641541
298.31705 214.32373 59.218506
303.31015 212.20448 69.743835
308.67917 211.34155 79.590363
314.06964 210.57742 89.370071
319.45096 209.81464 99.133057
324.82193 209.04959 108.8812
330.185 208.28935 118.61115
335.53897 207.53046 128.32455
341.29477 207.9205 137.51402
347.17307 208.63341 146.57224
353.06073 209.34758 155.64481
358.95776 210.06277 164.73187
364.86423 210.77916 173.83348
370.89816 211.7999 182.83134
377.61288 214.50899 191.20984
384.36667 217.23077 199.64024
391.16284 219.97276 208.12036
397.99875 222.72762 216.65332
405.7551 227.58823 224.53278
414.22339 233.97339 232.01501
422.81229 240.45209 239.60114
433.71606 252.0126 245.76605
447.4848 269.67444 250.36758
281.96558 221.27045 0.44900513
287.05591 219.1058 11.241455
292.1232 216.95503 21.98053
297.16541 214.81079 32.670807
302.18375 212.67676 43.310608
307.48328 211.50836 53.389862
312.89838 210.7408 63.234711
318.30429 209.9745 73.062897
323.70105 209.20956 82.874268
329.08853 208.44592 92.668915
334.46689 207.68356 102.44691
340.14221 207.78058 111.80412
346.04474 208.49994 120.8768
351.95538 209.2168 129.96571
357.87552 209.93478 139.0692
363.80508 210.65399 148.18715
369.74423 211.37433 157.31985
376.46472 214.05214 165.66893
383.24158 216.78632 174.05185
390.05807 219.53348 182.48712
396.91766 222.30101 190.97244
404.46768 226.63031 198.94427
412.95386 233.02902 206.27124
421.55957 239.51793 213.7014
431.82394 249.60168 220.06535
445.59082 267.27194 224.18286
290.93262 217.45448 -4.9332886
296.00165 215.29886 5.8720093
301.04666 213.15352 16.626038
306.27679 211.67668 26.95816
311.71686 210.90559 36.869141
317.14758 210.13586 46.763092
322.569 209.36734 56.640137
327.9812 208.60013 66.500336
333.38409 207.83438 76.343597
338.98163 207.64305 85.883514
344.90591 208.36163 94.973953
350.84103 209.08492 104.07733
356.78442 209.80583 113.19708
362.73737 210.52783 122.33154
368.69986 211.25096 131.4807
375.30811 213.59198 139.93851
382.10663 216.33495 148.27429
388.94513 219.09097 156.66251
395.82703 221.86752 165.10054
403.17047 225.66249 173.19522
411.67456 232.07477 180.36484
420.30054 238.5816 187.63434
429.92392 247.17894 194.28221
443.69043 264.86136 197.90964
305.06079 211.85016 0.29006958
310.526 211.07547 10.267975
315.98181 210.30222 20.228607
321.42825 209.53015 30.17218
326.8653 208.75946 40.098633
332.29303 207.99011 50.008057
337.81152 207.50449 59.751038
343.75909 208.22583 68.857635
349.71625 208.94833 77.978943
355.68301 209.6721 87.114929
361.65945 210.39694 96.265686
367.64548 211.12299 105.43123
374.14282 213.1284 114.01631
380.96317 215.88019 122.30409
387.82382 218.64508 130.64438
394.72812 221.43076 139.03412
401.86667 224.69238 147.28137
410.38876 231.1183 154.29143
419.03336 237.63931 161.39925
428.01941 244.75226 168.41339
441.78366 262.44266 171.54759
320.27609 209.69072 3.4711304
325.73825 208.91647 13.464691
331.19098 208.14363 23.440918
336.63437 207.37204 33.400024
342.60284 208.08899 42.526825
348.58356 208.81439 51.664246
354.57391 209.54095 60.816498
360.57404 210.26862 69.983673
366.58389 210.99756 79.165619
372.96884 212.6613 87.900421
379.81119 215.42194 96.139252
386.69556 218.19958 104.42868
393.62097 220.99069 112.77104
400.58911 223.79898 121.16492
409.09305 230.15186 128.05243
417.75635 236.687 134.99649
426.54382 243.31578 142.04012
439.86139 259.9953 145.10461
330.07916 208.29854 -3.3627014
335.5477 207.52338 6.6639099
341.43707 207.95097 15.978851
347.4415 208.67926 25.132477
353.45569 209.40871 34.300903
359.47971 210.13931 43.484375
365.51352 210.87112 52.682739
371.78745 212.19437 61.586548
378.65048 214.9603 69.777374
385.55731 217.74701 78.016754
392.50537 220.54726 86.309021
399.49811 223.36861 94.650925
407.79065 229.183 101.64308
416.47272 235.73239 108.42104
425.27966 242.37604 115.29645
437.93085 257.53574 118.57466
346.28998 208.543 -1.6192017
352.32819 209.27539 7.5654602
358.37628 210.0089 16.765137
364.4342 210.74368 25.979828
370.59576 211.72028 35.076263
377.48102 214.49522 43.216217
384.4104 217.29105 51.404572
391.38135 220.10046 59.645844
398.39722 222.93118 67.936401
406.47986 228.20792 75.063232
415.18076 234.7717 81.672729
424.00546 241.42612 88.379562
435.99387 255.06786 91.955978
363.34595 210.61513 -0.94577026
369.43826 211.35403 8.300415
376.30267 214.02657 16.453674
383.25476 216.8315 24.589996
390.24869 219.65027 32.779083
397.28793 222.49048 41.017303
405.15897 227.22272 48.313232
413.87866 233.80069 54.752014
422.72467 240.47397 61.284027
434.05042 252.5918 65.247986
382.09033 216.36856 -2.4295044
389.10895 219.20039 5.7043152
396.17007 222.04626 13.891418
403.83105 226.23492 21.387512
412.56976 232.82733 27.653168
421.43539 239.51543 34.009949
432.1004 250.10739 38.450317
446.33051 268.39871 39.138184
411.25226 231.84752 0.37643433
420.13589 238.54666 6.5576782
430.14206 247.61052 11.564697
444.362 265.89285 11.723969
291.79544 299.74307 746.68506
302.18872 287.46948 746.47412
312.17749 280.39294 746.35254
321.96487 276.23029 746.28101
331.64185 274.70435 746.25482
341.28802 274.7854 746.25623
350.95212 276.48453 746.2854
360.69531 280.40665 746.35278
370.61719 287.62558 746.47681
380.91742 300.6189 746.70013
291.60529 299.97189 737.46747
302.04358 287.56873 737.37073
312.07129 280.43115 737.31506
321.89468 276.25323 737.28247
331.60696 274.7081 737.27051
341.28796 274.78607 737.27112
350.98724 276.50839 737.28455
360.76611 280.44485 737.31519
370.72607 287.72549 737.37195
381.07715 301.03384 737.47583
291.41376 300.19894 728.17877
301.89743 287.66885 728.19958
311.96439 280.46619 728.21143
321.82397 276.27625 728.21838
331.5719 274.70847 728.22101
341.28802 274.7901 728.22089
351.02261 276.53241 728.21802
360.83752 280.48682 728.21143
370.83566 287.82266 728.19934
381.2381 301.44852 728.17676
291.2124 300.59338 718.81635
301.75012 287.76959 718.95972
311.85663 280.50494 719.04089
321.75278 276.29953 719.08789
331.53653 274.71228 719.10571
341.28799 274.79428 719.10474
351.0582 276.55313 719.08508
360.90939 280.52563 719.04071
370.9462 287.92401 718.95801
381.40051 301.87018 718.80206
291.00604 301.05615 709.37671
301.60184 287.86761 709.65063
311.74811 280.5405 709.80286
321.68103 276.32294 709.89038
331.50095 274.71619 709.92377
341.28799 274.7984 709.92212
351.09412 276.57751 709.88513
360.98178 280.56473 709.80237
371.05753 288.02615 709.64734
381.56409 302.29169 709.35095
291.11349 295.37387 700.04602
301.57574 284.96304 700.36279
311.69205 278.84863 700.54895
321.62952 275.3327 700.65594
331.46509 274.71652 700.67468
341.28799 274.80252 700.67212
351.12207 275.80139 700.64172
361.0202 278.92505 700.54657
371.07947 285.19855 700.35571
381.44269 295.74017 700.03479
279.9856 309.47861 689.96124
291.27051 288.74438 690.79407
301.67877 278.9201 691.18872
311.76593 272.93866 691.42902
321.68677 269.04681 691.58533
331.50174 267.65338 691.64136
341.28806 267.75888 691.63708
351.08856 269.03998 691.58557
360.97113 273.02124 691.42566
371.00406 279.21625 691.17688
381.32455 289.29205 690.77209
392.46667 311.29138 689.88843
279.72302 310.06635 680.2052
291.07404 288.9758 681.25916
301.52838 279.02347 681.75653
311.65567 272.9809 682.05847
321.61429 269.05389 682.25476
331.46561 267.65866 682.32446
341.28802 267.76111 682.31934
351.12491 269.06073 682.25439
361.04449 273.05682 682.05469
371.11685 279.31732 681.74182
381.48193 289.52579 681.23169
392.78137 313.72772 680.02222
279.45816 310.65915 670.36517
290.87585 289.21255 671.6488
301.37671 279.13123 672.2522
311.54462 273.02344 672.6178
321.54123 269.06439 672.85474
331.42914 267.664 672.93854
341.28799 267.76682 672.93237
351.16156 269.08154 672.85376
361.11844 273.09625 672.6134
371.23047 279.41919 672.23499
381.64053 289.76132 671.61597
393.00043 314.27438 670.1488
269.91211 296.57254 661.46521
281.06314 281.2988 662.53137
291.58502 271.99585 663.18073
301.80719 265.23663 663.65259
311.7966 261.42239 663.91882
321.68481 258.65012 664.1123
331.49963 257.38281 664.20081
341.28802 257.4939 664.19305
351.08899 258.58936 664.11658
360.9523 261.58197 663.90765
370.90298 265.37698 663.64282
381.0585 272.19031 663.16724
391.49979 281.76624 662.49878
402.5238 297.47552 661.40222
259.9295 290.37555 652.1441
271.2381 274.81335 653.38647
281.88464 264.61847 654.20032
292.1618 257.41437 654.77539
302.18466 252.68776 655.15271
312.08075 248.85364 655.4588
321.85675 246.93015 655.6123
331.5856 245.66327 655.7135
341.28802 245.80823 655.7019
351.00333 246.89383 655.61523
360.76505 249.11909 655.43762
370.61755 252.75128 655.14764
380.60608 257.82333 654.7428
390.79633 264.72485 654.19177
401.36002 275.27972 653.34918
412.55222 291.40823 652.06171
249.43913 290.14127 642.3385
261.17465 271.91354 643.97772
272.06943 259.92508 645.05585
282.42096 252.56732 645.71753
292.56726 246.18027 646.29193
302.47424 242.29971 646.64093
312.29443 238.59155 646.97437
321.98526 237.33932 647.08704
331.64966 236.09378 647.19897
341.28802 236.25577 647.18445
350.93921 237.32309 647.0885
360.6228 238.8652 646.94977
370.40265 242.43764 646.62854
380.26199 246.11728 646.29761
390.35916 252.85938 645.69128
400.62024 259.95575 645.0531
411.41339 272.27029 643.94568
423.00616 291.0318 642.25842
238.3559 294.83447 631.97052
250.83104 271.81567 634.27484
261.96747 258.93069 635.5647
272.52539 250.2115 636.43762
282.80472 242.99367 637.16016
292.81213 238.05298 637.65472
302.6687 234.22247 638.03821
312.42435 231.03099 638.35767
322.07211 229.77222 638.4837
331.69321 228.52007 638.60901
341.28802 228.70239 638.59082
350.89603 229.77542 638.4834
360.52655 230.84772 638.3761
370.25845 234.41028 638.01941
380.06787 238.03339 637.65674
390.04544 243.39975 637.11951
400.23566 250.34221 636.42456
410.74432 259.62109 635.49561
421.70776 271.97717 634.25867
433.9733 295.32428 631.92145
239.83151 277.2037 623.89526
251.47379 261.4744 625.63116
262.46338 249.53012 626.94934
272.86548 242.11063 627.76819
283.09799 234.89291 628.5647
293.00256 230.99036 628.99548
302.82333 227.12088 629.42249
312.52579 224.39926 629.72284
322.14005 223.13174 629.86273
331.72736 221.86462 630.00256
341.28799 222.06393 629.98059
350.86218 223.14758 629.86096
360.45929 224.23386 629.74109
370.14444 227.37059 629.3949
379.91797 231.0291 628.99115
389.8031 235.33578 628.51587
399.95178 242.36197 627.74048
410.25708 249.49655 626.95306
421.16077 261.92264 625.58173
432.72852 278.56647 623.74487
227.7433 290.22522 612.40894
240.64592 265.90903 615.34375
252.01874 252.20753 616.99744
262.7713 242.38681 618.18268
273.14548 234.85327 619.09192
283.27725 228.61647 619.84473
293.15076 224.7525 620.31104
302.9407 220.92441 620.77307
312.59979 218.65492 621.047
322.18921 217.39555 621.19897
331.75198 216.13968 621.35059
341.28802 216.35297 621.32477
350.83771 217.42702 621.19519
360.41037 218.50677 621.06482
370.05789 221.21918 620.73743
379.80164 224.84198 620.30023
389.62384 228.49402 619.85944
399.71985 235.22925 619.04651
409.99561 242.4599 618.17383
420.69867 252.91696 616.91174
431.87823 266.03821 615.32812
444.57208 290.80597 612.33887
228.85158 277.08356 604.00623
241.08136 258.23041 606.47791
252.39941 244.69791 608.25208
262.9494 236.79517 609.28809
273.29877 229.32414 610.26758
283.35675 223.92252 610.97571
293.22064 220.00433 611.48944
302.99976 216.11676 611.99908
312.63477 214.14789 612.2572
322.21301 212.87137 612.42456
331.76407 211.59845 612.59143
341.28806 211.82907 612.56122
350.82599 212.91821 612.41846
360.38727 214.01004 612.27527
370.01492 216.45357 611.95496
379.74713 220.12817 611.47314
389.55957 223.83925 610.98669
399.59351 229.77798 610.20813
409.84515 236.94019 609.2691
420.37415 245.56644 608.13818
431.50476 258.55127 606.43585
443.63995 278.37003 603.83752
212.21541 323.42764 587.37927
229.52408 267.71875 595.26715
241.31374 252.48158 597.42462
252.53188 239.79736 599.22058
263.05615 232.05273 600.31714
273.40533 224.4339 601.39587
283.40955 219.65512 602.07251
293.2691 215.66742 602.63721
303.04184 211.71791 603.19641
312.65747 210.03189 603.43506
322.22867 208.73738 603.61841
331.77219 207.44345 603.80164
341.28802 207.68828 603.76697
350.81833 208.79327 603.61047
360.37225 209.901 603.45361
369.98489 212.09967 603.14233
379.71042 215.83786 602.61304
389.51758 219.60733 602.07935
399.5072 224.96518 601.32068
409.75659 232.26221 600.28748
420.17294 239.6875 599.23615
431.31091 252.96063 597.35675
443.08154 269.49527 595.01562
215.79449 291.80362 581.5592
229.76245 262.07437 586.08282
241.48457 247.32262 588.32745
252.56929 235.89072 590.06696
263.08917 228.17889 591.24036
273.43378 220.59558 592.39429
283.39868 216.3812 593.03552
293.25986 212.41345 593.63928
303.03445 208.47754 594.23816
312.64508 207.01169 594.46124
322.22043 205.72095 594.65759
331.76807 204.43088 594.85388
341.28802 204.6781 594.81628
350.82245 205.7829 594.64819
360.38065 206.88737 594.48016
369.99109 208.87994 594.17694
379.71875 212.60535 593.61011
389.52777 216.35579 593.03943
399.48636 221.17882 592.30554
409.7326 228.45255 591.19873
420.14511 235.84433 590.07404
431.17377 247.97156 588.22876
442.67712 262.09531 586.07965
456.43216 292.72153 581.41956
216.00732 286.42609 572.0578
229.69502 259.02588 576.51886
241.42441 244.31979 578.91321
252.46939 233.4039 580.69043
263.02002 225.49307 581.97839
273.37506 217.91586 583.21204
283.3414 213.82439 583.87817
293.21759 209.76993 584.53833
303.00473 205.75508 585.19202
312.61823 204.43518 585.40686
322.20328 203.11609 585.62164
331.75977 201.80399 585.83527
341.28799 202.06299 585.79309
350.83115 203.18719 585.61011
360.39862 204.31422 585.42657
370.01416 206.17828 585.12305
379.7533 209.97713 584.50458
389.57599 213.80859 583.88074
399.52808 218.36349 583.13916
409.79724 225.82144 581.92493
420.23767 233.40059 580.69098
431.23694 245.05862 578.79291
442.74973 259.15167 576.49841
456.20331 287.0556 571.95526
215.64015 285.52942 561.81409
229.46542 257.33502 566.70709
241.28853 242.01302 569.36615
252.32806 231.33427 571.21936
262.91174 223.25354 572.62177
273.25964 215.97849 573.88428
283.24359 211.88568 574.5946
293.13718 207.82698 575.29895
302.93567 203.93546 575.9743
312.56665 202.61586 576.20331
322.16882 201.30019 576.43164
331.74261 199.99149 576.65881
341.28796 200.25665 576.61273
350.84842 201.38052 576.41772
360.43323 202.5042 576.22272
370.06274 204.25894 575.91815
379.81863 208.05598 575.25922
389.65857 211.88887 574.59399
399.61008 216.16373 573.85217
409.89404 223.60759 572.5603
420.36554 231.35745 571.21533
431.36862 242.84586 569.22162
442.96378 257.50983 566.67676
456.54559 286.20477 561.6969
215.14137 285.62064 551.32709
229.10875 256.69427 556.65997
240.9751 241.33127 559.49231
252.04239 230.7301 561.44678
262.66684 222.57692 562.94989
273.05847 215.15665 564.31787
283.07977 210.9478 565.09387
293.00739 206.78134 565.862
302.83456 202.84349 566.58795
312.49182 201.49409 566.83673
322.11984 200.14572 567.08533
331.71854 198.80153 567.33313
341.28806 199.07617 567.28247
350.87292 200.22624 567.07043
360.48294 201.37926 566.85791
370.13736 203.12695 566.53571
379.92331 207.0296 565.81622
389.79572 210.96367 565.09094
399.77737 215.2623 564.29846
410.10974 222.94806 562.88147
420.62173 230.77979 561.43762
431.65527 242.20692 559.33087
443.2901 256.88702 556.62445
457.00562 286.31744 551.19861
214.43004 287.30786 540.44495
228.61179 257.19965 546.32397
240.57767 241.39705 549.40955
251.72005 230.47757 551.54175
262.3974 222.16034 553.16577
272.83392 214.62198 554.63776
282.89282 210.3446 555.47296
292.85321 206.16452 556.28918
302.71149 202.23561 557.05627
312.39993 200.87973 557.32104
322.05875 199.52802 557.58496
331.68805 198.1804 557.84814
341.28802 198.45273 557.79492
350.90356 199.6118 557.5686
360.54437 200.77086 557.34235
370.22937 202.51044 557.00262
380.04684 206.41656 556.23993
389.95135 210.35735 555.47046
399.96817 214.70224 554.62207
410.34698 222.54893 553.0899
420.90918 230.5374 551.53003
432.0162 242.30344 549.2326
443.74094 257.38281 546.28821
457.64514 287.89716 540.3299
213.71008 289.01807 529.4386
228.09258 257.85815 535.8653
240.12181 241.96942 539.14227
251.34308 230.75377 541.45551
262.06839 222.39935 543.17859
272.55826 214.73117 544.76007
282.65875 210.43613 545.64594
292.66309 206.18199 546.52332
302.56445 202.15308 547.35431
312.29062 200.77338 547.63885
321.98654 199.39807 547.92249
331.65228 198.02698 548.20532
341.28802 198.30646 548.14764
350.93967 199.48212 547.90515
360.61713 200.661 547.66205
370.34067 202.45712 547.29156
380.19888 206.43188 546.4718
390.14621 210.44568 545.64398
400.21042 214.90199 544.72485
410.6348 222.78641 543.09875
421.24371 230.80721 541.44446
432.42493 242.85651 538.95935
444.21045 258.01749 535.8324
458.29132 289.49066 529.34119
212.9819 290.74774 518.3067
227.56891 258.51917 525.31055
239.66139 242.55042 528.78088
250.96259 231.03568 531.28326
261.73633 222.64365 533.10699
272.28036 214.84119 534.80261
282.42285 210.52835 535.73987
292.46857 206.25357 536.66882
302.41174 202.17361 537.55554
312.17645 200.78853 537.85651
321.91068 199.40775 538.15662
331.61447 198.03128 538.45569
341.28802 198.30869 538.39545
350.9776 199.489 538.13892
360.69318 200.6725 537.88171
370.45642 202.51352 537.48169
380.35461 206.50444 536.61438
390.34265 210.53473 535.73853
400.45471 215.10339 534.74567
410.92487 223.02257 533.02466
421.58139 231.08269 531.27301
432.83777 243.41797 528.59235
444.68387 258.65448 525.28119
458.94525 291.10571 518.22888
212.24539 292.49728 507.04694
227.03995 259.18994 514.65692
239.19673 243.13673 518.32471
250.57921 231.3167 521.02533
261.40152 222.89006 522.95062
272.00018 214.95212 524.76428
282.18506 210.62132 525.75378
292.27225 206.32892 526.7345
302.25797 202.19127 527.67981
312.06152 200.80063 527.99756
321.83417 199.41751 528.3136
331.57635 198.03561 528.62933
341.28802 198.31418 528.56567
351.01581 199.49915 528.29492
360.76981 200.68414 528.02417
370.57306 202.5704 527.59326
380.51157 206.57765 526.67767
390.54065 210.62454 525.75305
400.70105 215.30652 524.68335
411.21732 223.26073 522.86597
421.92157 231.3571 521.01611
433.25427 243.98457 518.13098
445.16211 259.3009 514.63159
463.34097 323.52036 499.95886
226.50607 259.867 503.90369
238.72786 243.72842 507.77252
250.19226 231.60339 510.6792
261.06415 223.13528 512.70923
271.71777 215.06393 514.6441
281.94531 210.71506 515.68665
292.0744 206.40488 516.71991
302.10278 202.21216 517.72498
311.94547 200.81601 518.05969
321.75717 199.42422 518.39331
331.53796 198.03682 518.72595
341.28802 198.31647 518.65887
351.05438 199.50618 518.37366
360.84708 200.69911 518.08771
370.6907 202.62775 517.62537
380.6698 206.65143 516.66077
390.74008 210.71179 515.68744
400.94955 215.51457 514.53607
411.51248 223.50417 512.62079
422.26474 231.63388 510.67188
433.67426 244.55287 507.57489
445.64478 259.95337 503.883
225.96765 260.54678 493.05042
238.25502 244.32211 497.12381
249.80229 231.88922 500.24521
260.72363 223.38583 502.38007
271.43298 215.17676 504.44107
281.70361 210.80954 505.53751
291.87494 206.48145 506.62411
301.94641 202.23323 507.69067
311.82855 200.83147 508.0426
321.67947 199.43414 508.39343
331.49921 198.04126 508.7431
341.28802 198.31885 508.67343
351.0932 199.51324 508.37354
360.92496 200.71094 508.07288
370.80927 202.68561 507.57709
380.82941 206.72577 506.56277
390.94135 210.80301 505.53912
401.20001 215.7211 504.30438
411.80988 223.74643 502.28955
422.61108 231.91643 500.23837
434.09851 245.12991 496.92099
446.15408 260.81085 492.98413
225.42415 261.23294 482.09485
237.77744 244.92482 486.37555
249.40865 232.18083 489.72067
260.38052 223.63516 491.96381
271.14587 215.29042 494.15417
281.45987 210.9048 495.30536
291.67383 206.55856 496.4462
301.78867 202.25768 497.5751
311.71082 200.8439 497.94623
321.6012 199.44104 498.31445
331.46017 198.04254 498.68152
341.28796 198.32437 498.60754
351.13232 199.52364 498.29276
361.00348 200.72604 497.97714
370.92871 202.74068 497.44833
380.99017 206.80072 496.38263
391.14423 210.895 495.30792
401.45261 215.92935 493.98645
412.10986 223.99069 491.87045
422.96008 232.19795 489.71619
434.52667 245.71223 486.16882
446.73175 262.24509 481.82916
224.87505 261.92932 471.03448
237.29533 245.53311 475.52713
249.01192 232.47166 479.10605
260.03415 223.89005 481.45746
270.85202 215.4612 483.767
281.21442 210.99757 484.99005
291.47107 206.63641 486.18506
301.62805 202.31766 487.36841
311.59201 200.85965 487.76788
321.52228 199.4511 488.15387
331.42087 198.047 488.53857
341.28796 198.32683 488.46191
351.17178 199.53079 488.13202
361.08258 200.7381 487.80121
371.04919 202.79935 487.23642
381.15231 206.8763 486.11932
391.34875 210.98779 484.99274
401.70752 216.1427 483.58026
412.41235 224.23703 481.36237
423.3121 232.4819 479.10324
434.95837 246.29642 475.31799
447.31552 263.6915 470.55164
224.32106 262.6286 459.86987
236.80919 246.14362 464.57825
248.61145 232.76839 468.39841
259.68518 224.1436 470.86179
270.55212 215.67993 473.27914
280.9668 211.09442 474.58884
291.26663 206.71487 475.83969
301.46609 202.37805 477.07837
311.47238 200.87225 477.50845
321.44269 199.46123 477.91144
331.3812 198.05145 478.31409
341.28802 198.33244 478.23386
351.21158 199.53809 477.8895
361.16235 200.75021 477.5433
371.17065 202.85861 476.9411
381.31577 206.95255 475.77182
391.55499 211.08125 474.59259
401.96436 216.3546 473.08643
412.71774 224.48895 470.76312
423.66687 232.76495 468.39938
435.39447 246.88962 464.36517
447.90613 265.15768 459.14752
223.658 264.1709 448.34985
236.31802 246.76331 453.52545
248.20781 233.06421 457.59845
259.33279 224.40289 460.17365
270.24976 215.8972 462.70255
280.71701 211.19202 464.1015
291.06055 206.79398 465.40912
301.30286 202.43904 466.70392
311.35165 200.88821 467.16501
321.36255 199.46829 467.58716
331.34128 198.05275 468.00806
341.28802 198.33487 467.92419
351.25162 199.5486 467.56329
361.24277 200.7657 467.20142
371.29312 202.91827 466.56143
381.48059 207.02934 465.33914
391.76291 211.17554 464.10638
402.22339 216.56818 462.50305
413.02551 224.73953 460.07355
424.02509 233.0538 457.60156
435.83472 247.48836 453.30988
448.50296 266.63663 447.6167
222.98315 265.76437 436.68805
235.8223 247.38895 442.36823
247.80026 233.36618 446.70291
258.97766 224.66095 449.39386
269.94485 216.11635 452.03516
280.46509 211.29048 453.52692
290.85275 206.87372 454.89221
301.13837 202.49724 456.24506
311.22992 200.90433 456.73749
321.28168 199.47859 457.17819
331.30099 198.05736 457.61752
341.28802 198.33736 457.53098
351.29205 199.55602 457.15424
361.32385 200.77803 456.77652
371.41663 202.97844 456.09631
381.64676 207.10687 454.82013
391.97263 211.27063 453.53305
402.48492 216.78702 451.82782
413.33615 224.9957 449.29041
424.38632 233.34528 446.70935
436.27866 248.08913 442.15179
449.10687 268.13593 435.95496
222.29999 267.38 424.89044
235.32181 248.02048 431.1051
247.38951 233.66724 435.71271
258.61917 224.9247 438.51917
269.63702 216.34077 441.27472
280.21124 211.38971 442.86407
290.64325 206.95413 444.28796
300.97244 202.55911 445.69879
311.10742 200.91728 446.22586
321.2002 199.48573 446.68539
331.26035 198.05873 447.14349
341.28806 198.34308 447.05222
351.33282 199.56674 446.65939
361.40555 200.79048 446.26654
371.54114 203.03918 445.54468
381.81421 207.1817 444.2149
392.18402 211.36646 442.87152
402.74847 217.00439 441.06171
413.64923 225.25072 438.41452
424.75082 233.63925 435.72168
436.72723 248.69922 430.88724
449.71729 269.64847 424.16226
221.60895 269.0144 412.95584
234.81693 248.65436 419.73584
246.97476 233.97449 424.6243
258.25781 225.18729 427.55048
269.32687 216.56374 430.42218
279.95514 211.48982 432.11182
290.43198 207.03525 433.59521
300.80505 202.6216 435.06494
310.9837 200.93364 435.62704
321.11798 199.49612 436.10577
331.21936 198.06332 436.58289
341.28799 198.34567 436.48886
351.3739 199.57426 436.07971
361.48801 200.80635 435.66943
371.66666 203.10036 434.90552
381.98315 207.26041 433.5202
392.39719 211.46304 432.12073
403.01428 217.2236 430.20242
413.96506 225.508 427.44366
425.11847 233.93582 424.63718
437.17957 249.31143 419.51703
450.33456 271.17819 412.23529
220.90981 270.66788 400.88181
234.30685 249.29807 408.25641
246.55676 234.28094 413.43872
257.89307 225.45572 416.48425
269.0137 216.79204 419.47406
279.6969 211.59076 421.26898
290.21893 207.11702 422.81287
300.63629 202.68459 424.34247
310.85898 200.95015 424.94101
321.03513 199.50668 425.43915
331.1781 198.06799 425.93561
341.28802 198.34821 425.83893
351.41528 199.58183 425.41321
361.57104 200.81902 424.98627
371.79324 203.16206 424.17767
382.1535 207.33978 422.73599
392.61218 211.56053 421.27942
403.28262 217.44809 419.24765
414.28366 225.76743 416.37671
425.49622 234.30916 413.42899
437.63672 249.93311 408.03726
450.95941 272.72928 400.17041
220.20245 272.34076 388.66586
233.7919 249.94794 396.66647
246.13455 234.59369 402.15228
257.52533 225.72298 405.32166
268.69806 217.01889 408.43149
279.43649 211.69257 410.3345
290.00409 207.19946 411.93982
300.46613 202.74806 413.53021
310.73334 200.96347 414.16782
320.95166 199.51407 414.68567
331.13644 198.06943 415.20184
341.28802 198.354 415.10016
351.45715 199.5928 414.65753
361.65479 200.8318 414.21487
371.92084 203.22429 413.36008
382.32532 207.41989 411.86105
392.82898 211.65884 410.34656
403.5531 217.6712 408.19843
414.60538 226.03275 405.21097
425.8924 234.84912 402.06104
438.09818 250.56079 396.44751
451.59103 274.29443 387.96786
219.48721 274.0296 376.30695
233.27185 250.60406 384.96442
245.70868 234.90921 390.7648
257.15399 225.99614 394.05884
268.37936 217.25119 397.29077
279.17386 211.79523 399.30713
289.78745 207.28259 400.97488
300.29462 202.81207 402.62708
310.60654 200.98019 403.30411
320.8674 199.52478 403.84198
331.09448 198.07416 404.37808
341.28802 198.3566 404.27371
351.49921 199.60054 403.81396
361.73929 200.84798 403.35297
372.04959 203.28699 402.45157
382.49854 207.50067 400.89429
393.04767 211.75797 399.32092
403.8259 217.89621 397.05237
414.92966 226.29684 393.94772
426.29266 235.39777 390.58426
438.56366 251.1908 384.74756
452.23041 275.88156 375.6225
218.76308 275.74234 363.79968
232.74722 251.26288 373.14999
245.27928 235.22391 379.27634
256.77975 226.26814 382.69714
268.0582 217.48215 386.0531
278.90906 211.89871 388.18576
289.56894 207.3665 389.91693
300.12149 202.87665 391.6319
310.47879 200.99377 392.35107
320.78244 199.53555 392.90808
331.05215 198.07881 393.46451
341.28799 198.35925 393.35739
351.54163 199.6084 392.88025
361.82443 200.86101 392.40179
372.17941 203.3503 391.45096
382.67328 207.58209 389.83456
393.26813 211.85791 388.20135
404.10135 218.12666 385.80692
415.25671 226.56326 382.58441
426.69675 235.95166 378.99835
439.03406 251.8306 372.93314
452.87668 277.48325 363.1347
218.03017 277.47562 351.14276
232.21704 251.93188 361.21878
244.8457 235.54517 367.68271
256.40186 226.54617 371.23245
267.73395 217.71844 374.71466
278.64194 212.00311 376.96912
289.34857 207.45111 378.76471
299.94702 202.94179 380.54346
310.34991 201.0108 381.30518
320.69687 199.54314 381.88409
331.00949 198.08032 382.46112
341.28796 198.36525 382.34875
351.58444 199.61951 381.85397
361.91028 200.8741 381.3591
372.3103 203.41411 380.35718
382.84949 207.66422 378.68066
393.49048 211.95874 376.98663
404.37903 218.35568 374.46329
415.5871 226.83566 371.11826
427.1044 236.50716 367.30322
439.50906 252.47656 361.00394
453.5311 279.10773 350.49896
217.28842 279.22977 338.33353
231.68164 252.60742 349.17044
244.40848 235.86563 355.98538
256.02078 226.82312 359.66623
267.40701 217.95352 363.2767
278.3725 212.10847 365.65601
289.12656 207.53305 367.51846
299.77103 203.00739 369.36069
310.21985 201.02792 370.16644
320.61047 199.55409 370.76639
330.96649 198.08517 371.36435
341.28799 198.36798 371.24921
351.62759 199.62752 370.73651
361.99686 200.8907 370.22232
372.44229 203.47844 369.16895
383.02716 207.74707 367.43137
393.71475 212.06042 365.67554
404.65915 218.58679 363.01892
415.92007 227.10693 359.55069
427.51624 237.07167 355.49445
439.98834 253.12518 348.95969
454.19278 280.74734 337.71579
216.5383 281.00116 325.37088
231.14148 253.28586 337.00482
243.94649 236.38538 344.09909
255.63608 227.1062 347.99417
267.07681 218.19409 351.7352
278.10074 212.21474 354.24512
288.90247 207.61897 356.17429
299.59357 203.07364 358.08224
310.0889 201.04187 358.93512
320.52338 199.56181 359.5564
330.92303 198.09003 360.17419
341.28796 198.37064 360.05643
351.67111 199.63548 359.52548
362.08417 200.90407 358.99298
372.57532 203.53995 357.88651
383.20645 207.83063 356.08542
393.94101 212.16296 354.26685
404.94202 218.82343 351.47101
416.2561 227.38068 347.87897
427.93173 237.63791 343.57333
440.4726 253.78391 336.79578
454.86273 282.4104 324.77933
215.77843 282.79816 312.24869
230.59592 253.97102 324.71872
243.47272 236.97958 332.06885
255.24812 227.38817 336.2179
266.74402 218.43344 340.09155
277.8266 212.32184 342.73529
288.67636 207.70575 344.73212
299.4147 203.13713 346.7084
309.95673 201.05927 347.60724
320.43561 199.57292 348.25021
330.8793 198.09158 348.89102
341.28796 198.37674 348.76767
351.71509 199.64697 348.21817
362.17227 200.92091 347.66711
372.70963 203.60545 346.50583
383.38724 207.91489 344.64166
394.16922 212.26642 342.75928
405.22723 219.05862 339.82111
416.59521 227.65678 336.10172
428.35156 238.21335 331.53516
440.96136 254.44528 324.51355
455.54022 284.08936 311.69012
215.00935 284.6171 298.9657
230.04492 254.66296 312.3103
242.99472 237.5759 319.92258
254.85628 227.67633 324.33286
266.4079 218.67838 328.34143
277.55011 212.42987 331.12515
288.4483 207.79327 333.19077
299.23413 203.20444 335.23511
309.82333 201.07687 336.18292
320.34702 199.58415 336.84796
330.83521 198.09653 337.51068
341.28806 198.37952 337.38461
351.75931 199.65512 336.81631
362.26102 200.93451 336.24637
372.84506 203.67146 335.02704
383.56958 207.99983 333.09875
394.39941 212.37079 331.15149
405.51489 219.29602 328.06628
416.93729 227.93552 324.21738
428.77554 238.79442 319.37973
441.45532 255.11703 312.108
456.22632 285.79248 298.44205
214.23074 286.45853 285.51886
229.48843 255.36185 299.77771
242.51166 238.18179 307.6553
254.46126 227.96355 312.3407
266.06912 218.92195 316.48657
277.27118 212.53894 319.41339
288.21826 207.88159 321.54892
299.052 203.2724 323.66238
309.68903 201.0912 324.66254
320.25778 199.59212 325.34991
330.79068 198.09813 326.03497
341.28806 198.38568 325.90311
351.80399 199.66335 325.31726
362.35062 200.9482 324.72812
372.98166 203.73799 323.44891
383.75354 208.0856 321.45538
394.63165 212.47606 319.44223
405.80551 219.53906 316.20361
417.28253 228.21671 312.22461
429.20325 239.37744 307.10706
441.95416 255.79556 299.57886
456.92023 287.51202 285.03583
213.44241 288.32288 271.90518
228.92581 256.07166 287.11725
242.02374 238.79361 295.26688
254.06229 228.25703 300.23669
265.7272 219.16782 304.52386
276.99011 212.64539 307.60034
287.98621 207.97061 309.8053
298.86829 203.34091 311.98901
309.55334 201.10909 313.04172
320.16763 199.6035 313.75186
330.74582 198.1031 314.45956
341.28796 198.38852 314.32495
351.84906 199.67508 313.71811
362.44095 200.96542 313.1095
373.11948 203.80515 311.77005
383.93909 208.17206 309.7103
394.86584 212.58228 307.6301
406.09845 219.78076 304.23477
417.63095 228.50053 300.12186
429.63562 239.96991 294.71204
442.45764 256.47693 286.92609
457.62299 289.25665 271.46472
212.6443 290.21042 258.12155
228.35806 256.78473 274.33069
241.53101 239.41156 282.75543
253.65988 228.54953 288.02277
265.38184 219.41951 292.4502
276.70624 212.75635 295.68137
287.75217 208.06042 297.95856
298.68295 203.41005 300.21365
309.41672 201.12364 301.32239
320.07684 199.61162 302.05563
330.7005 198.10815 302.7847
341.28802 198.39137 302.64737
351.89447 199.68349 302.02078
362.53207 200.9794 301.39236
373.25845 203.87289 299.9892
384.12628 208.25931 297.86209
395.10214 212.68938 295.71384
406.3941 220.02461 292.15674
417.98257 228.78693 287.90762
430.07214 240.56828 282.19452
442.96658 257.16913 274.14429
458.33398 291.01849 257.72968
211.83676 292.11746 244.16682
227.78452 257.50504 261.41418
241.03375 240.03195 270.12103
253.25348 228.84848 275.69373
265.03357 219.66989 280.26743
276.41989 212.8683 283.65668
287.51599 208.15106 286.00726
298.49606 203.4798 288.33496
309.27875 201.14175 289.5
319.98514 199.62318 290.25668
330.65491 198.10982 291.0108
341.28799 198.39769 290.86737
351.94031 199.69537 290.2207
362.62396 200.99348 289.57388
373.39868 203.94125 288.10501
384.31509 208.34734 285.90945
395.34052 212.7975 283.69196
406.6925 220.27078 279.96802
418.33719 229.07234 275.58218
430.51273 241.16876 269.55457
443.48065 257.86823 261.23322
227.20515 258.2327 248.36584
240.53108 240.66228 257.35809
252.84319 229.15019 263.24982
264.68188 219.92618 267.97052
276.13095 212.98123 271.52484
287.27777 208.24243 273.9501
298.3075 203.55009 276.35156
309.13956 201.16011 277.57474
319.89273 199.63486 278.35535
330.6088 198.1149 279.13321
341.28799 198.40062 278.987
351.98648 199.70395 278.31998
362.71671 201.01114 277.65097
373.54016 204.01016 276.11612
384.50555 208.4361 273.85101
395.58124 212.91003 271.56128
406.99384 220.52281 267.66519
418.69537 229.36407 263.14038
430.95807 241.77908 256.78656
443.99945 258.57053 248.19293
226.61971 258.96786 235.18356
240.02344 241.29897 244.46658
252.4295 229.45099 250.69138
264.32718 220.18118 255.5616
275.83942 213.09515 259.28452
287.03745 208.3347 261.78558
298.11719 203.62108 264.26208
308.9993 201.17514 265.54715
319.79959 199.64319 266.35202
330.56235 198.12006 267.15225
341.28799 198.40352 267.00333
352.03311 199.71259 266.31555
362.81015 201.02548 265.62579
373.68286 204.07974 264.02112
384.69775 208.52574 261.68524
395.82391 213.02007 259.32397
407.29767 220.77348 255.25043
419.05685 229.65855 250.58232
431.40781 242.39551 243.89049
444.52408 259.284 235.01749
226.02835 259.71057 221.86536
239.51062 241.94202 231.44452
252.01154 229.75835 238.01286
263.96884 220.44235 243.0352
275.54529 213.21008 246.93417
286.79489 208.4278 249.51236
297.9252 203.69275 252.06506
308.85767 201.19376 253.41229
319.70541 199.65509 254.24179
330.51547 198.12184 255.06839
341.28799 198.40999 254.91304
352.08014 199.72476 254.20422
362.90451 201.03999 253.49518
373.8269 204.14989 251.8186
384.89169 208.61606 249.41086
396.06879 213.13109 246.97676
407.60474 221.03015 242.71829
419.42181 229.95581 237.9064
431.86176 243.01427 230.86649
445.05408 260.00476 221.70674
225.43033 260.46503 208.4068
238.99298 242.58789 218.29196
251.59003 230.0649 225.21655
263.60754 220.70215 230.39371
275.24854 213.32607 234.47231
286.55026 208.52167 237.12889
297.73163 203.76494 239.75914
308.71497 201.20897 241.17247
319.61053 199.66704 242.02505
330.4682 198.12698 242.87662
341.28799 198.41304 242.71848
352.12753 199.73355 241.98828
362.99973 201.05807 241.25591
373.97217 204.22069 239.50713
385.08731 208.70728 237.02628
396.31577 213.24312 234.51817
407.91428 221.28558 230.07108
419.7901 230.25584 225.11098
432.32068 243.64316 217.70847
445.62363 261.04099 208.08833
224.82654 261.22327 194.81017
238.46962 243.2442 205.00278
251.16415 230.37808 212.29675
263.24249 220.96812 217.63138
274.94904 213.44312 221.8974
286.30341 208.61638 224.63374
297.53619 203.83791 227.34274
308.5708 201.22794 228.82237
319.51483 199.67569 229.70239
330.42053 198.12883 230.5793
341.28806 198.41602 230.41649
352.17535 199.74246 229.66452
363.09567 201.07281 228.91031
374.11871 204.29213 227.08525
385.28476 208.7993 224.53004
396.56509 213.35614 221.94672
408.22678 221.54346 217.30524
420.16202 230.55872 212.19434
432.78391 244.27469 204.41859
446.25946 262.62878 194.01337
224.21649 261.9895 181.07108
237.94087 243.90729 191.57687
250.73451 230.69051 199.25584
262.87433 221.23288 204.75072
274.64688 213.56122 209.20795
286.05447 208.70836 212.02747
297.33905 203.91145 214.81448
308.42535 201.24707 216.3625
319.41821 199.68788 217.2684
330.37238 198.13412 218.17111
341.28802 198.42258 218.00351
352.22375 199.75493 217.22945
363.19247 201.08771 216.45508
374.26657 204.36423 214.55144
385.48395 208.89217 211.92068
396.81665 213.47021 209.26082
408.54218 221.80365 204.4191
420.53735 230.86449 199.15475
433.2522 244.91644 190.99055
446.90262 264.23199 179.7682
223.58731 262.86557 167.12669
237.40709 244.5733 178.01453
250.30049 231.00969 186.08774
262.50238 221.50394 191.74571
274.34192 213.68042 196.40234
285.80307 208.80492 199.30434
297.14023 203.9821 202.17496
308.27878 201.26277 203.79352
319.32086 199.69655 204.72574
330.32376 198.13953 205.65251
341.28802 198.4257 205.48216
352.27246 199.76398 204.68562
363.29028 201.1062 203.88669
374.41577 204.43692 201.90422
385.68494 208.98579 199.19666
397.0705 213.58536 196.45895
408.8606 222.06641 191.4109
420.91638 231.17316 185.99046
433.72531 245.56485 177.42433
447.55411 265.85904 165.34496
222.84314 264.6163 152.50424
236.86739 245.25015 164.30894
249.8625 231.32814 172.79514
262.12711 221.77376 178.619
