# .PCD v0.7 - Point Cloud Data file format
VERSION 0.7
FIELDS x y z
SIZE 4 4 4
TYPE F F F
COUNT 1 1 1
WIDTH 1610
HEIGHT 1
VIEWPOINT 0 0 0 1 0 0 0
POINTS 1610
DATA ascii
27.88987 7.9922724 67.865784
28.589539 8.0783319 67.524948
29.0748 8.7803707 66.702744
29.446623 9.8710833 65.568588
21.973686 8.6985931 68.350494
22.973797 8.1561317 68.480583
23.786449 7.9982615 68.322868
24.594494 7.841445 68.165894
25.391603 7.7007055 67.998047
26.144768 7.6579056 67.755501
26.896851 7.6149979 67.513451
27.647713 7.5723295 67.271637
28.397499 7.5295486 67.030334
28.939161 8.064064 66.329552
29.266598 9.2593231 65.093872
22.706163 7.7364483 67.875908
23.520323 7.5845785 67.715004
24.331421 7.4305506 67.557297
25.139036 7.2751036 67.402252
25.917847 7.1786098 67.201965
26.65357 7.1820812 66.922798
27.367239 7.2420321 66.598206
28.082443 7.3021154 66.272919
28.754644 7.4841976 65.847778
29.101219 8.6042156 64.653107
27.218624 16.386621 57.960808
28.07527 16.394878 57.63176
28.566149 17.574247 56.326553
23.256344 7.1581736 67.109512
24.037313 7.0798502 66.892708
24.816078 7.0017509 66.676506
25.592735 6.9236956 66.46106
26.323471 6.9517202 66.159866
27.042124 7.0118704 65.832016
27.743946 7.1197729 65.464127
28.419813 7.3050756 65.030846
28.402847 9.4321871 62.972591
28.516302 11.347412 61.071098
28.046322 15.17196 57.535137
28.87347 15.253174 57.146168
23.554586 7.127162 65.89238
24.400742 6.9211493 65.779282
25.202618 6.8041658 65.594543
25.985012 6.7259254 65.378723
26.71203 6.7784109 65.054108
27.398838 6.9366455 64.639763
28.059593 7.1747284 64.156044
28.089769 9.150692 62.18639
28.532486 10.110025 61.069611
28.023499 13.950299 57.454441
28.986599 13.592538 57.447884
29.39455 14.981716 55.918133
22.639223 8.069478 64.119377
23.837749 7.1433458 64.607254
24.693172 6.9347582 64.497604
25.54211 6.72791 64.388626
26.341194 6.6274481 64.190674
26.942797 7.0120382 63.575882
27.153044 8.4333725 62.058613
27.713448 9.0228148 61.251953
28.50078 9.0272322 60.952267
28.930317 10.064775 59.74118
29.056435 12.100047 57.634132
29.477638 13.385609 56.175171
29.905024 14.766726 54.61718
22.575508 8.837184 62.138931
24.010174 7.421011 63.064594
24.676739 7.6717758 62.5555
25.349234 7.9249926 62.041645
25.716551 8.9410124 60.85387
26.561422 8.8207827 60.661339
27.35318 8.831007 60.353893
28.107903 8.9427576 59.955414
28.740953 9.4073343 59.237907
29.306 10.110124 58.299717
29.673433 11.479431 56.74678
30.105488 12.763722 55.257473
18.201319 15.125237 55.884735
19.181126 14.944528 55.70808
22.663399 9.3084755 60.351082
24.13069 7.8383961 61.352539
24.481461 8.8599863 60.142757
25.322783 8.7752571 59.916725
26.169216 8.6719332 59.708405
26.955044 8.7168341 59.36636
27.7236 8.8111486 58.978638
28.471273 8.9706697 58.529922
29.140329 9.3697062 57.85788
29.701775 10.125796 56.849331
30.107975 11.435634 55.314522
15.875104 15.000698 55.460907
17.053093 14.463806 55.597984
18.039278 14.282038 55.424152
19.019094 14.102732 55.250057
19.993324 13.924446 55.076954
21.117575 13.404644 55.215755
22.551588 12.147074 56.033726
24.956455 8.5244923 59.037155
25.798973 8.4482985 58.803383
26.565107 8.5589437 58.396839
27.374065 8.5659962 58.085911
28.253132 8.3834028 57.953133
29.010349 8.5299702 57.511211
29.641779 9.0586395 56.704544
29.974709 10.549612 54.972439
30.05283 12.994778 52.307251
14.927767 13.936934 55.524075
15.916538 13.770136 55.336987
16.895508 13.612918 55.143028
17.8764 13.442934 54.962402
18.856382 13.264814 54.79108
19.667046 13.430544 54.30463
20.749193 13.020294 54.350594
22.86562 10.278082 56.576469
24.556696 8.3331861 58.083908
25.443956 8.1695662 57.931381
26.32596 8.0072756 57.779366
27.306128 7.5818348 57.880295
28.227837 7.279068 57.868069
28.917591 7.592947 57.263832
29.51387 8.2018604 56.369778
30.126942 8.8131685 55.466793
30.130306 11.393209 52.624657
13.77757 13.250299 55.252285
14.772665 13.082035 55.068428
15.758533 12.921673 54.879139
16.739882 12.760984 54.691914
17.7073 12.618196 54.489777
17.973194 13.866339 52.986198
23.029762 8.7801867 56.810993
24.498753 7.3498325 57.869019
25.42573 7.0874777 57.816536
26.433628 6.6109228 57.974632
27.343594 6.3448877 57.932667
28.169233 6.2779942 57.698326
28.904816 6.4493542 57.229774
29.467253 7.1223793 56.261875
30.042479 7.8156595 55.266403
30.283281 9.5973063 53.172157
11.61143 12.740563 55.153515
12.617639 12.571778 54.970173
13.623999 12.394186 54.796902
14.620296 12.224999 54.617737
15.605208 12.067303 54.429642
16.105993 12.796407 53.404076
16.176811 14.38425 51.552979
23.022152 7.6801434 56.689758
24.577974 6.0736294 57.952393
25.550898 5.6921139 58.025974
26.451939 5.4541197 57.961594
27.246084 5.4612093 57.655678
28.102184 5.3110228 57.507256
28.930119 5.2236185 57.297245
29.363926 6.2150278 55.995388
29.992079 6.7325258 55.165215
30.207312 8.5348349 53.013531
10.441775 12.05926 54.868877
11.437498 11.916786 54.662788
12.438797 11.758195 54.47353
13.449418 11.57597 54.308517
14.010891 12.157413 53.415375
22.999367 6.6266637 56.53817
24.609203 4.9240909 57.933361
25.515406 4.6847825 57.874519
26.403643 4.4705033 57.79303
27.172665 4.5273786 57.437912
27.961563 4.5389476 57.128525
28.811991 4.3919673 56.982208
29.216455 5.4353781 55.605587
29.942276 5.6638803 55.065174
30.015772 7.8258839 52.499432
8.1831417 11.63427 54.679684
9.2795315 11.35832 54.599609
10.276762 11.221413 54.389923
11.269444 11.085129 54.18119
11.895093 11.531906 53.410652
22.944656 5.6520362 56.320923
24.581644 3.9174705 57.787876
25.464979 3.7228508 57.690125
26.316458 3.5871811 57.533604
27.126928 3.5383506 57.288284
27.845652 3.7099142 56.812992
28.670893 3.6246014 56.605904
29.216625 4.2696567 55.62748
29.810776 4.8355441 54.725868
29.82283 7.1199036 51.981075
29.718872 9.9602833 48.612785
7.1324148 9.5033035 56.109756
7.8970442 9.6816463 55.604431
8.0039024 10.813393 54.17701
9.1021471 10.539083 54.101479
9.7665529 10.904562 53.404331
20.792938 7.1929102 53.819847
22.716774 5.0371981 55.741074
24.359688 3.3283601 57.219833
25.235847 3.156518 57.101963
26.089949 3.022006 56.946602
26.915985 2.9426308 56.734177
27.732584 2.8799615 56.504814
28.530155 2.8597322 56.230553
29.070379 3.5018759 55.240822
29.352432 4.8908491 53.432388
29.52355 6.7107301 51.137318
29.440321 9.4399509 47.822906
4.7862902 9.2069073 55.799332
5.9525509 8.8530149 55.805405
6.9192381 8.7539387 55.567066
7.64293 8.9861679 55.004765
7.960474 9.8018465 53.863789
8.4046936 10.471476 52.858284
22.287104 4.8175311 54.736443
24.068913 2.8755717 56.501297
25.005623 2.587491 56.51099
25.862122 2.4546576 56.356258
26.688292 2.3809161 56.138863
27.507196 2.318778 55.90966
28.225061 2.4972587 55.416885
28.791965 3.0707855 54.485783
28.989197 4.6625948 52.417553
29.194973 6.3671789 50.204834
29.127876 9.0051117 46.925095
2.2350674 9.1080351 55.286312
3.3350201 8.8705254 55.178024
4.2577324 8.8492107 54.859341
5.1468086 8.8707466 54.498398
5.729763 9.2995138 53.730751
6.8529644 9.0142088 53.67495
8.0558424 8.6059856 53.746677
8.8752174 8.722744 53.289928
8.8846169 10.018601 51.62698
21.828377 4.6341825 53.668709
23.775833 2.4176397 55.776917
24.732328 2.1024094 55.821945
25.633602 1.8837457 55.764015
26.458929 1.8175864 55.539276
27.257473 1.8079567 55.25219
27.862892 2.2563529 54.450981
27.81951 4.3412042 51.797462
28.504154 4.7255654 51.048553
28.893417 5.9334035 49.355885
28.760681 8.7076607 45.853043
-0.31027222 8.9280357 54.838364
0.74049187 8.7732344 54.647015
1.4454708 9.028264 54.048828
4.6889172 8.4156265 53.634655
5.1261396 9.0334225 52.66198
7.7779217 7.9327812 53.108486
8.7562647 7.8288188 52.877739
9.5846138 7.9334278 52.430206
10.21841 8.3260489 51.678596
11.113318 8.348362 51.313831
21.065514 5.0064468 51.956963
23.370607 2.1695766 54.806297
24.38064 1.7672601 54.954235
25.37689 1.3667574 55.104969
26.201973 1.3085985 54.871731
27.003571 1.2988653 54.583908
27.494165 2.0110888 53.467609
27.239285 4.5779109 50.203045
28.000851 4.7992945 49.627686
28.563532 5.5596399 48.421364
27.906391 9.7182455 43.223881
27.135735 14.582409 37.14534
7.6904974 8.2307005 51.092632
8.9606619 7.7438183 51.268005
10.193143 7.2880983 51.415798
11.274685 7.0313244 51.353928
12.309681 6.8317294 51.232979
13.243425 6.7775435 50.955383
14.173214 6.7268152 50.674648
15.14356 6.6079035 50.469955
18.800936 8.126791 47.065762
22.94792 1.9363728 53.795902
23.986021 1.5021038 53.987873
24.983074 1.1228819 54.121559
25.844353 1.0048695 53.956558
26.646032 1.0090733 53.650337
27.118713 1.7613449 52.466282
26.710714 4.6499839 48.753193
27.480639 4.8782597 48.158985
28.186131 5.2902517 47.343056
27.775549 8.7153187 42.912994
27.082663 13.238619 37.118938
27.717476 14.313429 35.442417
10.982527 6.3846536 50.678345
12.205101 5.9168243 50.860165
13.343248 5.5527968 50.931587
14.298488 5.452466 50.710716
15.244446 5.3615971 50.480381
16.196991 5.2551298 50.268921
17.114906 5.2006521 49.999294
18.029913 5.1480846 49.728146
21.472931 2.0951376 52.615185
22.544947 1.6464891 52.827209
23.598156 1.205575 53.035702
24.581112 0.87618256 53.117916
25.451187 0.7580061 52.9534
26.084904 1.1382446 52.195419
25.389042 4.5017567 47.853302
26.162201 4.7318325 47.248535
26.942043 4.9641171 46.638241
27.728739 5.1984406 46.022587
27.739145 7.4753485 42.902687
27.025415 11.928304 37.07634
27.745657 12.712927 35.732506
13.038769 4.9419518 50.227768
14.171027 4.5799885 50.309799
15.252681 4.2777514 50.327225
16.28512 4.0377769 50.275959
17.21147 3.958333 50.039803
18.134195 3.8804922 49.802765
18.973526 3.9425936 49.401138
21.050852 1.8000622 51.620804
22.138119 1.3460054 51.848602
23.203693 0.90423203 52.067341
24.171598 0.62484741 52.095428
24.985765 0.63797283 51.771782
25.508356 1.2634878 50.700394
24.797689 4.6150446 46.276192
25.5914 4.8265724 45.682541
26.398043 5.0244098 45.103203
27.214207 5.2151604 44.530212
27.43782 6.9296398 42.046867
26.90686 10.80187 36.826576
27.614653 11.589847 35.45837
15.023599 3.5673447 49.748432
16.110689 3.2484369 49.797333
17.188164 2.9275489 49.852676
18.23914 2.6323576 49.881172
19.24452 2.3974876 49.840412
20.569811 1.5899591 50.499458
21.745712 1.0018969 50.900352
22.784763 0.63080692 51.041965
23.754416 0.368577 51.053768
24.38707 0.75654888 50.261169
23.435173 4.4213428 45.371956
24.248386 4.6000528 44.811214
25.068237 4.7775335 44.249741
25.893597 4.9562078 43.684494
26.724442 5.1362967 43.115166
27.091696 6.4831219 41.049488
26.846125 9.538003 36.76852
27.479664 10.489637 35.168709
15.352146 3.3533516 48.229889
16.954815 2.2377267 49.262676
18.023684 1.9216833 49.324711
19.182343 1.4384375 49.597923
20.273573 1.0419397 49.769394
21.264221 0.79853439 49.754383
22.326426 0.40985775 49.925282
23.245781 0.26395321 49.794224
23.765078 0.88371944 48.691925
22.859209 4.4043608 43.875961
23.68539 4.5794916 43.309715
24.529329 4.7293835 42.773773
25.378056 4.8801289 42.234787
26.231613 5.0317297 41.692734
26.992058 5.4218354 40.83633
26.769512 8.3337383 36.655586
27.370567 9.3320293 34.968319
17.253096 2.0866156 47.661537
18.871246 0.89281178 48.843483
19.871283 0.66326046 48.812454
20.771051 0.59267902 48.580833
21.058914 1.6052985 46.955681
20.086187 4.9955668 42.240749
21.037968 4.9632306 41.932323
22.048367 4.8137155 41.777485
23.226635 4.3127894 42.086227
24.056049 4.5092802 41.480827
24.87175 4.7507873 40.813122
25.733112 4.9077511 40.254971
26.601192 5.0618281 39.69862
26.593964 7.3906918 36.211983
27.257219 8.1996145 34.751274
20.62676 4.5360942 40.877357
21.584599 4.5038252 40.567688
22.541277 4.4715953 40.258389
23.496675 4.4396162 39.949188
24.539928 4.21768 39.8983
25.365955 4.4602308 39.216679
26.199636 4.7050343 38.52874
26.48978 6.2802162 36.00478
27.036741 7.350081 34.159309
19.078703 6.1510382 37.016212
20.470915 5.3883581 37.691078
21.793463 4.7072802 38.264008
22.789986 4.6316695 38.00901
23.783676 4.5562677 37.754745
24.668106 4.7116003 37.179359
25.362431 5.3081441 35.982849
26.072626 5.9180293 34.759453
26.798203 6.5442467 33.504662
18.552233 5.8469992 35.673836
19.963705 5.0851011 36.368603
21.260265 4.4878292 36.84198
22.267159 4.4157615 36.580215
23.249947 4.3873768 36.257313
24.088512 4.661643 35.50227
24.786867 5.2664504 34.26878
25.426434 6.0568361 32.759197
17.982632 5.5922899 34.224041
19.44701 4.7737842 35.021351
20.707621 4.2756376 35.368095
21.704424 4.2471652 35.041172
22.700264 4.2185044 34.714916
23.439194 4.7175703 33.61692
24.035366 5.562839 32.002968
24.660398 6.4140964 30.368343
22.041933 14.903049 17.386379
22.973465 15.509279 16.039886
23.928808 16.112444 14.689507
17.512709 5.140924 33.019695
18.915068 4.46383 33.634514
20.103783 4.1261353 33.757683
21.090906 4.1414223 33.361797
22.100552 4.1141763 33.029125
22.785728 4.7378116 31.721626
23.324587 5.717073 29.869898
20.80825 13.433614 17.814018
21.777819 13.893183 16.676273
22.833748 14.18902 15.781975
23.899765 14.487677 14.879139
24.924688 14.923176 13.761189
25.904787 15.527096 12.37632
15.288252 5.8408928 30.451679
17.099339 4.5764709 31.954517
18.469801 3.980125 32.469723
19.515516 3.9157062 32.188786
20.512423 3.9358211 31.780279
21.500631 3.9738498 31.344118
21.979122 5.0153146 29.367527
19.282108 12.617207 17.260777
20.399857 12.740248 16.629345
21.44276 13.039551 15.721813
22.495928 13.341799 14.805351
23.559645 13.646731 13.880306
24.633801 13.955006 12.94558
25.718693 14.266359 12.001511
26.760632 14.732427 10.806568
27.487396 16.19025 8.0184059
15.115282 4.8469472 29.975136
16.673866 4.0165596 30.858887
17.940439 3.6179767 31.088684
18.944834 3.6435957 30.666784
19.925415 3.7133894 30.175711
20.736677 4.1006279 29.186871
21.182911 5.2157092 27.04805
18.341328 12.956958 14.426727
19.537989 12.968841 13.957024
20.736855 12.976971 13.493124
21.936598 12.983854 13.031103
23.136614 12.990735 12.568981
24.249046 13.214664 11.755951
25.288527 13.650835 10.595026
26.32848 14.132483 9.3535156
27.384712 14.621679 8.0925598
28.307871 15.577493 6.0565033
29.091276 17.11121 3.0510941
14.591761 4.3917861 28.66127
16.218304 3.4884081 29.688232
17.322651 3.3747444 29.480097
18.312634 3.4454737 28.980742
19.305328 3.5163937 28.480021
19.930996 4.2528181 26.911083
20.411501 5.315012 24.806309
19.805107 13.338573 10.49567
21.056234 13.294175 10.106995
22.312702 13.233464 9.7458744
23.5667 13.172884 9.3854485
24.818102 13.112736 9.0252075
25.899145 13.499008 7.9199677
26.955866 13.996873 6.6216583
28.029604 14.503152 5.3017139
29.122972 15.01126 3.9710999
14.059114 3.92869 27.324474
15.708794 3.0255671 28.383327
16.698463 3.1104822 27.854527
17.699936 3.181725 27.346695
18.681561 3.2914915 26.774754
19.112959 4.3744211 24.601624
17.222118 17.004673 1.8518715
18.81134 16.445005 2.2954712
20.306055 16.045519 2.477005
22.602345 13.734725 5.9079399
24.065351 13.23825 6.281498
25.339794 13.176589 5.9181614
26.536015 13.321314 5.2008247
27.613621 13.825119 3.8610249
28.367451 15.38366 0.68362427
11.196707 5.2204423 23.476736
13.518717 3.4550862 25.968037
15.070145 2.7350283 26.757603
16.058537 2.8395557 26.187939
17.071756 2.9113207 25.671354
17.839319 3.393764 24.464781
18.308113 4.4212928 22.332169
10.907206 4.324192 22.721741
12.971251 2.9696007 24.59359
14.410183 2.4453611 25.077995
15.402252 2.5617018 24.478775
16.427498 2.6339917 23.953156
16.977032 3.4771829 22.100187
10.616965 3.4256682 21.964821
12.414113 2.4755287 23.194857
13.733469 2.1483455 23.355762
14.729614 2.2757287 22.726999
15.666334 2.5016136 21.923143
16.124409 3.4937587 19.763323
10.05854 2.8752089 20.585815
11.846872 1.972877 21.770756
13.039196 1.843926 21.58885
14.046568 1.971941 20.947891
14.768093 2.5310912 19.527554
15.37147 3.3081908 17.703342
11.049767 1.7499065 19.793903
12.298018 1.5706224 19.704311
13.302847 1.720058 19.012102
14.077067 2.211412 17.684608
14.733123 2.9112668 15.961302
15.129235 4.059413 13.389166
9.4993896 2.4543161 16.006126
11.436506 1.4210024 17.5196
12.455369 1.5727248 16.808697
13.389179 1.8534594 15.850037
14.06012 2.5337362 14.12389
14.749478 3.2326965 12.350338
10.446088 1.394352 15.012978
11.576985 1.4230595 14.525021
12.609915 1.5874147 13.771767
13.346079 2.1812038 12.173603
14.080564 2.8175583 10.481285
9.166851 1.6783876 11.786289
10.700212 1.2267504 12.244709
11.760219 1.3760529 11.505638
12.692007 1.7110338 10.389809
13.437109 2.3333321 8.6865845
13.595122 3.8606157 5.1328583
9.8058958 1.0088663 9.9184513
10.942902 1.0795488 9.3258667
11.931455 1.3529568 8.3121452
12.779288 1.8386936 6.8517685
13.543306 2.4774847 5.0628281
4.0307217 3.576786 2.5770111
5.5831223 3.2548208 2.7736893
8.8013153 0.88155651 7.3074341
10.080766 0.79932213 7.0266037
11.139397 0.99842548 6.1480713
11.994604 1.4834423 4.6542587
12.866963 1.9778156 3.1313705
2.4905319 2.4424782 2.3582382
4.0416241 2.1391115 2.5315666
5.5904264 1.820775 2.743
7.3217888 1.2669296 3.4720402
9.0641375 0.66553688 4.3152809
10.324389 0.63397789 3.9212799
10.923688 1.461319 1.6377563
2.4305954 1.0979548 2.1258774
3.9423218 0.83938313 2.2213173
5.2623129 0.78050041 1.8771896
6.467432 0.85048676 1.246067
27.967424 17.23938 57.56086
28.724209 17.130194 56.948818
28.864466 17.346361 56.008102
26.074152 16.664516 58.561268
27.333923 16.30875 58.186481
28.498705 15.995592 57.783161
29.481783 15.770479 57.301746
29.306725 16.139595 56.203606
29.383808 16.383488 55.2248
29.462227 16.630682 54.232368
28.332605 12.17612 68.53363
28.696133 12.236368 67.833084
29.061295 12.296749 67.129883
29.12468 12.497192 66.304642
29.086512 12.747803 65.427094
28.738312 13.147291 64.405716
26.106743 15.671162 58.519985
27.769863 15.126596 58.351097
28.321262 15.122611 57.641518
29.287621 14.911938 57.151939
29.528389 15.062083 56.279861
29.771324 15.213571 55.399979
30.077881 15.335078 54.547501
29.920425 15.697248 53.413689
25.580338 12.071682 69.169724
28.204659 11.149868 69.235123
28.537586 11.219685 68.531731
28.872082 11.289825 67.82505
29.195137 11.366079 67.110092
29.377796 11.506389 66.335472
29.315395 11.759443 65.453117
28.988106 12.136793 64.445084
28.287373 12.691005 63.253643
26.041895 14.730453 58.431595
27.346811 14.371331 58.085938
28.356247 14.148394 57.609474
29.304256 13.951636 57.113937
29.544325 14.097031 56.244522
29.9252 14.175541 55.445015
30.289143 14.263723 54.630894
30.137787 14.610888 53.506779
29.968359 14.972908 52.349785
29.793734 15.343613 51.166527
26.349949 10.865941 69.346336
28.37175 10.222462 69.216461
28.693478 10.293982 68.513077
29.007589 10.369807 67.802795
29.312622 10.450663 67.084709
29.619566 10.531873 66.362701
29.538166 10.784616 65.477478
29.238064 11.137773 64.485367
28.51247 11.685661 63.287758
25.124172 14.185087 57.927086
27.140869 13.509622 57.929489
29.083519 12.858049 57.935356
29.371666 12.973612 57.103199
29.774965 13.036474 56.326645
30.15559 13.111176 55.533401
30.476137 13.216011 54.70079
30.327393 13.550304 53.583897
30.174793 13.892006 52.442993
30.003021 14.248849 51.26783
29.807102 14.623696 50.053719
29.539627 15.04079 48.767761
26.772135 9.8254414 69.40834
28.247881 9.4232397 69.097359
28.568806 9.4928207 68.394211
28.891527 9.5626564 67.687675
29.235992 9.6243877 66.985374
29.547689 9.7008696 66.266426
29.576328 9.8989868 65.427094
29.359573 10.205297 64.47229
28.710823 10.702861 63.31102
28.287773 11.109673 62.220512
28.599602 11.200296 61.44416
28.779715 11.350533 60.599609
28.902103 11.528798 59.717453
27.686096 12.310663 58.150871
29.228535 11.856777 57.961418
29.62735 11.91722 57.192936
30.004547 11.988562 56.408752
30.383265 12.060343 55.620781
30.60372 12.207209 54.736866
30.401594 12.555464 53.593109
30.226616 12.896557 52.442669
30.101128 13.219623 51.300171
29.839542 13.613787 50.048744
29.564148 14.021325 48.761337
29.149557 14.50413 47.352192
28.631514 15.046448 45.838127
23.3563 10.113859 69.027985
26.538605 9.0591698 69.25058
28.123997 8.6254997 68.978386
28.476463 8.680171 68.287155
28.841946 8.7303677 67.597488
29.208992 8.7806578 66.905388
29.325142 8.9345245 66.110474
29.370558 9.1198626 65.2771
29.109703 9.4353466 64.302734
28.640871 9.842701 63.21804
28.261692 10.218335 62.14801
28.62822 10.282412 61.399033
28.92152 10.37886 60.611118
29.169928 10.496185 59.795013
29.354572 10.643089 58.939186
29.516361 10.802319 58.061943
29.639626 10.981091 57.153709
29.929617 11.08839 56.324829
30.22171 11.196466 55.489956
30.342489 11.383873 54.548943
30.202728 11.693289 53.440838
30.314163 11.892146 52.464294
30.233627 12.183393 51.354237
29.936935 12.580661 50.085533
29.597515 13.004777 48.76088
29.193125 13.467007 47.36245
28.723034 13.968683 45.885662
27.937124 14.631918 44.149284
27.73156 15.023273 42.785553
27.536955 15.416101 41.401276
27.337498 15.8183 39.984261
22.914352 9.3932209 68.799469
26.082874 8.3769169 69.017525
27.069799 8.1883364 68.533859
28.043343 8.0022688 68.056953
28.815319 7.8924546 67.516167
29.057882 7.989841 66.777802
29.113344 8.1629734 65.95874
29.17684 8.3354321 65.132034
28.86725 8.6608372 64.136208
28.440689 9.0385971 63.068398
28.256876 9.3226986 62.085377
28.638824 9.3778496 61.345947
28.848152 9.5055466 60.520588
29.014091 9.6533699 59.665485
29.202271 9.794096 58.81176
29.520954 9.8815365 58.016258
29.876183 9.9546928 57.234322
29.967781 10.142859 56.303001
30.044634 10.340443 55.350449
30.179575 10.51572 54.417744
30.290375 10.704521 53.458466
30.401894 10.896087 52.48632
30.360716 11.159472 51.405212
30.075195 11.538021 50.148731
29.738419 11.94635 48.831223
29.291767 12.412242 47.40995
28.811642 12.901644 45.931328
28.199852 13.461209 44.32325
27.999889 13.835667 42.972008
27.807306 14.213154 41.598015
27.530193 14.638 40.130947
26.893684 15.244967 38.351036
27.169155 15.415919 37.252365
27.430159 15.597127 36.128502
27.693649 15.780409 34.992428
22.843052 8.529995 68.691956
24.893627 7.9604278 68.534836
26.024574 7.7265906 68.090591
27.012474 7.5432816 67.60923
27.902905 7.3943048 67.103012
28.436747 7.379364 66.468277
28.788181 7.4343724 65.761658
29.004807 7.5424232 64.995888
28.614254 7.8890772 63.965103
28.2225 8.241353 62.910866
26.808014 9.0040951 61.372105
27.639122 8.8819485 60.824318
28.07148 8.9183283 60.094349
28.494158 8.9591894 59.35714
28.809673 9.0444431 58.562992
29.298458 9.0597115 57.852924
29.715347 9.1050396 57.10342
30.129896 9.1520615 56.349445
30.236507 9.3296003 55.418732
30.328838 9.5160551 54.467075
30.421925 9.7051992 53.502445
30.516497 9.8967867 52.524979
30.461029 10.15683 51.439743
30.207912 10.507927 50.208641
29.877853 10.898941 48.900833
29.498125 11.318712 47.530212
29.04097 11.780466 46.074329
28.356903 12.353131 44.422573
28.206284 12.691467 43.113659
27.941874 13.088255 41.693905
27.619413 13.519071 40.198868
26.852087 14.166636 38.322922
27.326866 14.23674 37.387035
27.730713 14.342051 36.387531
27.993752 14.517277 35.261623
27.356241 15.134602 33.349827
23.408081 7.6262388 67.949013
24.817623 7.3024983 67.588493
25.99894 7.0572977 67.166031
26.588051 7.0258517 66.537003
27.175716 6.9944868 65.909492
27.634054 7.0107985 65.232285
27.943939 7.0830021 64.492661
27.659006 7.3808956 63.494911
25.990385 8.2096062 61.86998
24.830605 8.8556576 60.417915
25.667997 8.7401972 59.849686
26.534912 8.6115017 59.303631
27.03945 8.6229143 58.588303
28.133015 8.4017944 58.170197
29.095701 8.2293549 57.699818
29.492943 8.2810993 56.939667
29.903315 8.3283482 56.182976
30.323217 8.3724632 55.4282
30.504122 8.5154781 54.531864
30.451006 8.7577248 53.485901
30.382759 9.0102272 52.412575
30.233152 9.3011169 51.269329
30.062685 9.6056652 50.090569
29.906181 9.9093132 48.897614
29.748289 10.218663 47.680229
29.286146 10.66567 46.228485
28.445211 11.286587 44.473347
28.167496 11.668849 43.077538
27.851059 12.075051 41.622334
27.585648 12.465388 40.173172
26.809278 13.094852 38.293846
27.283247 13.162231 37.360901
27.759212 13.229898 36.424004
28.236921 13.297981 35.482895
28.040611 13.684876 33.958817
27.536463 14.225313 32.131935
25.543879 15.490226 28.923515
23.738403 7.1739912 65.389938
25.348581 6.7852497 65.128212
26.426289 6.582438 64.679474
26.223389 6.8407021 63.714664
24.251072 7.7485962 61.976902
11.405926 12.667845 55.396671
13.048513 12.29351 55.023682
14.710733 11.906236 54.686592
25.029734 8.2578945 58.525814
26.052597 8.0762672 58.048119
28.196308 7.4639163 58.151649
29.006172 7.3552961 57.605671
29.442923 7.3896575 56.868118
29.840483 7.4398727 56.106461
30.239801 7.4901905 55.342003
30.319515 7.6681995 54.38858
30.270636 7.9005346 53.345074
30.201235 8.1449146 52.271091
30.020016 8.4387674 51.10812
29.817024 8.7463894 49.9081
29.657064 9.0413275 48.712025
29.496395 9.3415012 47.491924
29.254591 9.6808605 46.191578
28.514923 10.237128 44.511059
28.067453 10.677976 42.997002
27.753252 11.068968 41.545578
27.446953 11.463358 40.067581
26.760727 12.031498 38.260258
27.233345 12.096459 37.329697
27.688747 12.170281 36.379505
28.098747 12.265915 35.38496
28.050282 12.571928 33.98962
27.839043 12.958349 32.42474
26.457821 13.894304 29.776716
24.776871 14.988093 26.769909
23.906506 15.719759 24.424824
10.643801 11.854209 54.984879
12.235636 11.512314 54.582912
12.304273 11.714174 53.49548
26.165363 7.1067953 58.049515
28.057055 6.6076155 58.030697
29.037939 6.4390588 57.574921
29.197212 6.5754404 56.691925
29.789722 6.5505104 56.036751
30.188076 6.5990157 55.273834
30.154081 6.8139882 54.256435
30.061928 7.0548782 53.187405
30.018169 7.2808113 52.128685
29.806831 7.5762196 50.946873
29.576954 7.8838167 49.729195
29.407658 8.1723299 48.526222
29.192926 8.483942 47.268806
28.944321 8.8145504 45.962051
28.345745 9.2940102 44.379631
27.951454 9.6973515 42.904919
27.645191 10.071009 41.461216
27.302517 10.466471 39.957626
26.701044 10.978527 38.217976
27.104885 11.069962 37.235756
27.511497 11.161839 36.247711
27.920334 11.254406 35.253338
27.689419 11.629581 33.703159
26.889919 12.263616 31.621021
25.893244 12.997602 29.3041
24.986084 13.704926 27.001308
24.167999 14.385028 24.715992
23.279966 15.11029 22.299454
22.352253 15.867956 19.774948
21.943338 16.397043 17.698212
22.689135 16.389633 16.755125
23.440601 16.379368 15.818707
24.191628 16.369104 14.882839
24.942562 16.358681 13.947895
25.692709 16.348431 13.013126
26.371569 16.373478 11.997623
26.814621 16.517723 10.702986
27.261326 16.663155 9.3976974
27.711721 16.809792 8.081604
28.165525 16.957821 6.7541637
28.623447 17.106909 5.4160728
28.783588 17.417404 3.6717453
7.8546677 11.498932 54.818165
9.9197798 11.014305 54.58897
10.480221 11.041574 53.713013
24.332935 6.639287 58.076294
26.693041 5.9991517 58.256519
27.918041 5.7527733 57.909958
29.069267 5.5290375 57.544266
29.21558 5.6646042 56.657322
29.542929 5.7364268 55.859241
30.136566 5.7117357 55.205967
30.022165 5.948328 54.143776
29.832624 6.2166934 53.017464
29.76943 6.4419327 51.946186
29.552711 6.7289524 50.759979
29.333958 7.0214477 49.548382
29.104641 7.322834 48.305099
28.888134 7.6242666 47.044746
28.633175 7.9458041 45.731876
28.176807 8.3522606 44.248398
27.943466 8.6768951 42.891258
27.636162 9.0368099 41.450481
27.286415 9.4201565 39.945374
26.602428 9.9467316 38.145321
26.986174 10.042669 37.14957
27.372515 10.139244 36.147148
27.341221 10.412726 34.786732
26.796268 10.908584 32.961468
25.705513 11.646649 30.611925
24.04821 12.642591 27.685074
23.789133 13.04875 25.943954
23.564571 13.447401 24.195969
23.240877 13.897585 22.314112
22.899031 14.364538 20.370163
22.114164 15.040775 17.935654
22.805775 15.056397 16.947086
23.55571 15.045444 16.018089
24.305168 15.034498 15.089678
25.05414 15.023558 14.161882
25.802628 15.012625 13.234682
26.54862 15.002663 12.305782
26.991903 15.139269 11.023407
27.433123 15.279757 9.7238541
27.876013 15.422402 8.4110489
28.322289 15.566412 7.0867977
28.772673 15.711472 5.7517738
29.22654 15.857929 4.4050159
28.707001 16.511013 1.7406158
7.2048445 10.603688 54.458141
8.1147385 10.518881 53.714233
8.714839 10.535779 52.835995
9.235055 10.579678 51.919006
24.763962 5.5615115 58.226562
26.519058 5.14885 58.117218
27.464901 5.007041 57.629444
28.805416 4.7268696 57.359589
29.246376 4.7551799 56.629665
29.394001 4.8867264 55.735649
29.888468 4.8978367 55.026985
29.89097 5.084249 54.031609
29.612621 5.3744059 52.853043
29.492081 5.6121435 51.746147
29.28072 5.8868451 50.561836
29.076897 6.1632595 49.358509
28.803307 6.4700775 48.085014
28.563433 6.7693892 46.807186
28.304092 7.0810423 45.489246
28.018368 7.407979 44.124626
27.935259 7.6628294 42.877483
27.643946 8.0025291 41.452282
27.315889 8.3624353 39.967804
26.613178 8.8759642 38.157898
26.991415 8.9696903 37.162231
27.299023 9.0933504 36.100033
27.609669 9.2180023 35.028568
24.021713 10.933596 30.611404
23.463728 11.434522 28.678459
22.756395 12.006659 26.562717
22.547335 12.380724 24.846565
22.332787 12.764132 23.08791
22.068306 13.176117 21.242756
21.714142 13.634628 19.267796
21.669575 13.967303 17.555851
22.387833 13.971365 16.590717
23.122461 13.968241 15.642323
23.857304 13.96496 14.694477
24.574745 13.96949 13.727924
25.255432 13.990911 12.719751
25.876564 14.040276 11.641109
26.380615 14.14529 10.42009
26.887903 14.250978 9.1912308
27.398117 14.357506 7.9540596
27.911972 14.464561 6.7093048
28.431145 14.571342 5.4590282
28.963936 14.673752 4.2141113
28.39908 15.324518 1.4927444
6.8789253 9.1903763 56.483185
7.958972 9.0539713 55.819229
8.1618338 9.19203 54.78878
8.6803102 9.2319136 53.887001
8.8326435 9.389472 52.815025
24.642128 4.6794004 58.111149
26.345213 4.2991667 57.97802
27.372997 4.1356659 57.53265
28.288157 4.0070577 57.042149
29.051588 3.9272308 56.481022
29.33176 4.0090966 55.659966
29.57345 4.1053162 54.810036
29.218096 4.4075179 53.604561
29.088554 4.6365724 52.507229
29.157663 4.8001742 51.511135
29.02726 5.0363979 50.375263
28.8197 5.3037457 49.16851
28.532934 5.6037173 47.885284
28.234585 5.9128141 46.566772
27.961935 6.2177515 45.237522
27.720846 6.5162807 43.902271
27.656134 6.7548628 42.667053
27.464394 7.0447474 41.314812
27.268528 7.3411808 39.931759
26.561668 7.8360405 38.121929
26.865551 7.9539495 37.070278
27.172424 8.0727968 36.009506
27.472984 8.1962204 34.931705
26.460215 8.8365078 32.718987
20.638113 11.390175 26.23597
20.812181 11.597931 24.85767
20.988661 11.808564 23.460274
21.03838 12.07467 21.922432
20.79945 12.46425 20.080505
20.491585 12.889813 18.130013
20.954407 13.001223 16.90554
21.670626 13.007784 15.928396
22.353481 13.0287 14.91564
23.036877 13.049799 13.901163
23.721539 13.070772 12.885719
24.407085 13.091776 11.868946
24.946877 13.177909 10.683231
25.465036 13.275521 9.4624214
25.986712 13.373577 8.2345314
26.511583 13.472233 6.9991283
27.039343 13.571653 5.7556973
27.570704 13.67153 4.5050087
1.5203724 9.4971981 55.382294
4.4330158 8.8294029 55.403526
4.8952789 8.8887949 54.454121
5.279067 8.9728107 53.465931
8.0428581 8.3320131 53.527153
9.4461756 8.0998802 53.021103
10.149599 8.0809793 52.205967
24.506214 3.8037467 57.989044
25.878769 3.5420833 57.693539
27.110725 3.3209763 57.349068
28.057629 3.1874328 56.874577
28.820835 3.1108871 56.313011
29.063604 3.201745 55.47065
29.16415 3.3404493 54.539463
27.882088 3.9362402 52.791103
27.419865 4.2695856 51.477798
27.122355 4.5531926 50.234684
27.245892 4.6994853 49.229576
27.363262 4.8502469 48.206818
27.479549 5.0038438 47.169151
27.597618 5.1593585 46.118092
27.620888 5.3504663 44.986507
27.421579 5.6229196 43.67865
27.326817 5.8629656 42.420166
27.180361 6.1255617 41.09967
27.154408 6.349278 39.844875
26.404081 6.8400145 38.003265
26.578947 7.0003042 36.850086
26.840971 7.1312056 35.751732
27.137009 7.2517509 34.668354
26.887878 7.5796227 33.10667
25.647045 8.2900219 30.643866
11.409533 6.8083577 51.594955
24.762533 2.9741206 57.085476
26.17033 2.7106342 56.818863
27.283237 2.5334039 56.421501
28.302532 2.3823318 55.989986
28.334297 2.5358486 55.026123
28.419746 2.6749377 54.078403
27.763412 3.0503578 52.68552
25.466337 3.9537148 50.276772
24.974453 4.2925491 48.887627
25.050894 4.4531035 47.822803
25.122101 4.6179595 46.739017
25.27824 4.7576008 45.695122
25.56566 4.8560514 44.726189
25.920023 4.9337783 43.793808
26.235891 5.0257678 42.826317
26.651369 5.0854793 41.921867
27.069206 5.1453981 41.013069
27.15427 5.3212919 39.844776
26.426163 5.783545 38.024597
26.600548 5.9366803 36.875675
26.715088 6.1137261 35.661743
26.774822 6.3135195 34.383167
26.469898 6.6484909 32.771633
24.892057 7.4530511 30.011528
12.189997 5.6921129 50.769482
24.922066 2.17097 56.130054
26.361599 1.9077168 55.890259
27.336117 1.7778382 55.424755
27.688787 1.8311057 54.627365
27.62495 2.0101686 53.588093
27.638878 2.1685123 52.576614
26.257465 2.7545938 50.715179
19.839325 5.2793007 43.310455
23.167297 4.4278183 44.279518
23.493307 4.5147481 43.306015
23.911533 4.5736175 42.387379
24.457914 4.5921335 41.553497
25.005157 4.6106806 40.7183
25.553278 4.6292543 39.881783
26.102268 4.6478572 39.04393
25.433319 5.0731468 37.255131
25.422871 5.2842093 35.945004
25.412521 5.4989414 34.61174
25.168861 5.7973824 33.059902
24.785788 6.1493254 31.355621
24.126192 6.6040235 29.370075
16.144079 3.8705277 50.466316
26.300568 1.173069 54.821198
27.077862 1.1049137 54.247246
26.911444 1.3064995 53.143356
26.67454 1.5316076 51.977745
26.054832 1.8718166 50.559868
24.700666 2.4331574 48.656059
20.2295 4.4834075 41.078842
21.243561 4.3650503 40.523228
22.247654 4.2478004 39.973446
22.51898 4.5520368 37.62109
23.457394 4.4541569 37.03051
24.053442 4.4638057 36.184231
24.030436 4.6728005 34.843346
23.747318 4.9698706 33.266331
23.595444 5.229207 31.764458
23.250786 5.5568395 30.06778
22.801203 5.9253244 28.240923
17.279438 2.7011447 49.897545
24.94524 0.78175831 53.022053
25.532743 0.77172375 52.319275
25.276949 0.99432945 51.125027
25.044998 1.2137833 49.921127
24.204355 1.6073818 48.319695
20.675362 4.232049 34.912678
21.475595 4.1856809 34.180225
22.288424 4.1346459 33.463303
22.430714 4.2903976 32.205704
22.053637 4.6111588 30.496027
21.677137 4.9374237 28.747759
21.309486 5.2667122 26.967081
19.907948 5.9337182 24.222961
18.355118 1.5634708 49.317883
23.272251 0.43665504 50.99128
23.83699 0.43708515 50.24633
23.424616 0.69650745 48.915684
18.940149 3.8274374 32.209499
19.765142 3.780993 31.460972
20.455294 3.7735181 30.608328
20.649353 3.9135265 29.342915
20.267229 4.2289715 27.568207
19.906998 4.5434084 25.771999
19.59441 4.8489447 23.977451
17.330116 3.3365927 29.529482
18.041618 3.3287573 28.654335
18.752266 3.3210297 27.779497
18.846893 3.4888897 26.380474
18.461447 3.7978964 24.540226
18.123697 4.0985942 22.700418
15.870646 4.9659142 19.073704
15.383002 5.3270845 16.971581
15.701494 2.8014531 26.761024
16.407234 2.800261 25.843496
17.137108 2.7925215 24.94672
16.970833 3.0291367 23.270035
16.606453 3.3245134 21.382977
16.282532 3.6139765 19.490128
15.630779 4.0005903 17.249832
15.457664 4.2589207 15.408218
15.257044 4.529891 13.501518
15.031498 4.8131123 11.529427
14.078462 2.2144108 23.922043
14.713473 2.2359285 22.905628
15.432988 2.2360277 21.959618
15.040443 2.5255504 20.023203
14.940583 2.7434187 18.309174
14.999567 2.9231486 16.709507
15.059948 3.1057901 15.083324
15.120952 3.2916384 13.429167
15.179718 3.4815598 11.74346
14.836551 3.7855649 9.6195278
14.208819 4.1743255 7.1515617
12.362343 1.5986328 20.92758
12.90801 1.6454182 19.790541
13.387117 1.7093639 18.586803
13.681036 1.8202958 17.204294
13.708752 1.9997268 15.556194
13.737362 2.1822047 13.879549
13.766057 2.3680191 12.172834
13.925686 2.5236692 10.565056
14.093162 2.6801996 8.939045
14.263115 2.8390489 7.2889786
13.715383 3.190475 4.8519154
10.715247 1.2646618 14.548731
11.190388 1.3338718 13.263123
11.794806 1.3737221 12.088287
12.377963 1.419383 10.885832
12.570893 1.5600185 9.2882996
12.766516 1.7026238 7.6683998
12.9649 1.8472381 6.0256615
13.151199 1.9976053 4.3438187
12.176415 2.4416928 1.3800125
8.9184561 0.90053844 7.5914726
10.186351 0.7960062 6.9928684
10.950877 0.80423737 5.9045544
11.13982 0.94502449 4.2193832
3.418644 0.71104717 2.3243637
4.8565598 0.58778763 1.7846794
28.238607 11.575282 69.227272
28.663832 11.565282 68.376328
29.088951 11.555276 67.525604
29.399672 11.726821 66.682587
29.116787 12.85228 65.864738
28.526262 9.5418596 68.808136
28.900232 9.5987425 67.976768
29.289768 9.6325674 67.143036
29.634418 9.7367754 66.311188
29.721945 10.246083 65.487778
29.225981 11.687198 64.66761
27.350718 9.1284094 69.344055
28.414637 8.1596508 68.442627
28.91206 8.0240202 67.608955
29.198582 8.2047911 66.792389
29.317822 8.643405 65.980469
29.43828 9.0874691 65.158989
29.247919 10.020501 64.33329
28.633221 11.632307 63.487259
28.267395 16.440222 57.983627
29.401352 15.307393 57.153168
29.658676 15.623315 56.220299
26.831434 8.3532438 69.017052
27.526054 7.9405432 68.156113
28.266178 7.4543962 67.300568
28.696966 7.41817 66.474174
29.055405 7.4892988 65.651779
29.142834 7.9693222 64.835358
28.879141 8.9899521 64.012222
28.673182 9.9393969 63.166634
28.369434 11.055754 62.297405
28.749971 11.126584 61.43055
28.847902 11.642072 60.545593
26.645882 16.528677 58.512009
29.228945 13.102669 57.827881
29.502439 13.368856 56.918327
29.999382 13.273432 56.036423
30.453381 13.247329 55.149429
30.345518 14.158911 54.155075
30.025719 15.444489 53.093204
25.950115 8.0975409 68.727936
26.73325 7.5695801 67.857803
27.382301 7.2260733 67.0084
27.858198 7.1281233 66.175758
28.23695 7.1705704 65.348923
28.578987 7.2678165 64.521927
28.530413 7.9469595 63.694603
28.35437 8.8282776 62.850418
28.441727 9.3264771 61.99382
28.807621 9.4088116 61.138714
29.034328 9.7063522 60.272778
29.266958 9.9998074 59.400383
29.600502 10.140651 58.531185
29.759043 10.559789 57.637856
29.903698 11.008379 56.732563
30.229139 11.174903 55.844795
30.515091 11.408331 54.945992
30.469353 12.187685 53.976288
30.422871 12.98246 52.987061
30.159307 14.152903 51.926376
29.816963 15.477317 50.815716
25.094543 7.7922688 68.432961
25.94841 7.1783209 67.556656
26.489758 6.9951859 66.713303
26.969032 6.8973265 65.876892
27.398716 6.8689089 65.044205
27.712257 7.0076752 64.213882
27.753531 7.5448608 63.38002
27.605463 8.3685989 62.530457
27.583244 9.0197773 61.666328
28.081083 8.9061775 60.814209
28.482922 8.9350452 59.958076
28.860149 9.0017309 59.099098
29.222839 9.0917797 58.237011
29.684338 9.0309582 57.384979
30.124668 9.0020161 56.531414
30.294193 9.3976431 55.634827
30.298861 10.061304 54.698685
30.357216 10.651018 53.756798
30.433613 11.222244 52.804092
30.41893 11.951977 51.81498
30.050304 13.276052 50.714584
29.805431 14.419563 49.615059
24.113085 7.6462717 68.145813
24.965994 7.0494637 67.267471
25.501835 6.8812838 66.420029
26.03504 6.7141457 65.576462
26.552708 6.5661635 64.737045
26.731743 6.8946552 63.9039
26.715912 7.5061512 63.061768
26.630407 8.2276373 62.203835
26.549986 8.9535007 61.329315
27.109297 8.7570152 60.474701
27.533546 8.7561493 59.614609
27.935158 8.7888794 58.752449
29.038643 7.7712684 57.96701
29.486362 7.7265759 57.121929
29.919996 7.7025728 56.275864
30.353342 7.6785941 55.430344
30.516991 8.0720749 54.53553
30.535646 8.6990986 53.601181
30.556463 9.3338232 52.651428
30.553225 10.018175 51.679569
30.286222 11.1383 50.620171
29.90781 12.459299 49.499767
29.523708 13.813868 48.342915
29.087872 15.278927 47.133133
23.145916 7.4629292 67.852936
23.863768 7.0626702 66.981392
24.337654 6.9864502 66.130844
24.797857 6.9277291 65.282478
25.24691 6.8834114 64.435654
25.539257 7.0554829 63.590252
25.481417 7.7192411 62.73613
25.641903 8.0863066 61.873016
25.47831 8.9190607 60.986237
26.050451 8.7130365 60.126205
26.574604 8.5728531 59.267242
27.026466 8.5354462 58.404602
29.126455 6.0815015 57.733009
29.264374 6.4866562 56.859966
29.882866 6.182302 56.049763
30.314476 6.1537042 55.215351
30.240742 6.8908377 54.286087
30.274137 7.4769053 53.360447
30.293894 8.0942612 52.416695
30.250938 8.8201094 51.441467
30.203373 9.5661068 50.446102
30.151627 10.332127 49.42992
29.664436 11.808143 48.258556
29.184818 13.298929 47.050201
28.700724 14.824507 45.800003
23.04137 7.8026853 64.995392
23.813519 7.3355246 64.127693
24.168194 7.4277558 63.269424
24.411495 7.6737871 62.406837
24.642757 7.9402957 61.538013
24.363773 8.9200974 60.636398
24.946262 8.7088509 59.770309
25.640972 8.3357296 58.918919
27.578873 6.1867781 58.20425
28.975037 4.780098 57.477303
29.347946 4.8309183 56.644058
29.485849 5.225502 55.772884
30.110546 4.9104319 54.976658
30.032532 5.6327829 54.052765
29.96608 6.3501821 53.112808
30.027302 6.8872375 52.183853
29.958338 7.6318655 51.208202
29.875536 8.4108086 50.209229
29.852255 9.1113205 49.206932
29.83218 9.819334 48.186886
29.580034 10.906214 47.070351
28.82901 12.807028 45.747154
27.997614 14.871855 44.341393
22.973749 9.2705317 60.265957
27.290506 5.0816364 57.925255
28.411098 4.0874839 57.174641
29.114815 3.6677547 56.389549
29.421005 3.8089957 55.551323
29.728977 3.9500217 54.70982
29.517492 4.8478723 53.76239
29.675064 5.2203326 52.871342
29.678581 5.8266931 51.934391
29.629406 6.521966 50.968079
29.578907 7.2312746 49.982933
29.527424 7.9544654 48.978493
29.496796 8.6585045 47.961082
29.456863 9.3894119 46.921356
29.132938 10.57552 45.760197
28.4468 12.352047 44.42905
28.190878 13.479082 43.220409
27.791687 14.856081 41.919331
27.258282 3.6472173 57.678371
28.133535 3.0046778 56.909649
28.750767 2.709753 56.119301
28.970161 2.9664721 55.271046
29.182512 3.2373338 54.414894
28.906662 4.2067709 53.45372
29.053028 4.5870748 52.559807
29.329124 4.7862191 51.686771
29.29385 5.4426847 50.728279
29.243074 6.1331611 49.747894
29.170975 6.8671613 48.7425
29.12606 7.5732622 47.725697
29.082991 8.2889585 46.69009
28.975019 9.1161194 45.61134
28.571821 10.411512 44.39724
28.274141 11.566707 43.188911
28.055817 12.618793 41.981258
27.797142 13.753856 40.725327
27.446236 15.056843 39.393143
25.350113 4.2004342 58.109222
26.56044 3.1370068 57.359322
27.376257 2.5885348 56.583595
28.120235 2.1289277 55.81105
28.305073 2.427701 54.956097
28.530941 2.6746626 54.101028
28.166225 3.7476649 53.118759
28.121117 4.3898115 52.179359
28.359173 4.6419415 51.291245
28.660965 4.8073511 50.412964
28.921337 5.0351415 49.51862
28.838324 5.7650819 48.515221
28.742634 6.5260987 47.487663
28.707996 7.210156 46.459713
28.624725 7.9785714 45.395065
28.348904 9.0497589 44.235233
28.112724 10.079893 43.060825
27.921 11.060521 41.875648
27.749245 12.028075 40.670925
27.573151 13.020039 39.435814
27.161255 14.40079 38.055229
27.643806 14.388691 37.094959
27.832047 14.847494 35.976166
27.706299 15.82238 34.66626
24.76223 3.5213771 57.798431
25.727106 2.8006921 57.023224
26.614918 2.1704998 56.255848
27.352806 1.7298741 55.481491
27.736195 1.7576852 54.657436
27.856293 2.1418576 53.7826
27.941566 2.5796809 52.890343
27.273764 4.0591779 51.816059
27.388067 4.4796553 50.893356
27.677917 4.6619339 50.005493
27.980824 4.8288689 49.116333
28.282455 5.0004115 48.222183
28.400911 5.4371529 47.264336
28.323797 6.1637874 46.227394
28.241756 6.9101086 45.168118
28.166794 7.6589918 44.09026
28.052317 8.4795656 42.974876
27.80999 9.505806 41.781246
27.552771 10.572823 40.55088
27.375366 11.537545 39.326485
27.084919 12.693419 38.017635
27.561619 12.681388 37.069576
28.037958 12.669701 36.121685
28.430071 12.790781 35.126732
27.426329 15.138889 33.307777
24.777782 2.6025114 56.670784
25.844812 1.756588 55.925728
26.580864 1.3288345 55.150047
27.17757 1.0773973 54.361038
27.294388 1.4572401 53.48568
27.412703 1.8411283 52.600487
26.932365 3.0363517 51.567543
26.454014 4.2482071 50.502628
26.681612 4.5148487 49.592552
26.9832 4.6839132 48.696205
27.28405 4.8568001 47.79493
27.586365 5.0305243 46.889275
27.890347 5.2048216 45.979275
27.853516 5.8677354 44.940262
27.831352 6.5209236 43.88781
27.885605 7.0746374 42.847343
27.802485 7.8388782 41.732067
27.514673 8.9185162 40.502449
27.218391 10.02992 39.236664
26.976252 11.079928 37.9641
27.378092 11.173213 36.991535
27.780897 11.266723 36.016636
28.080551 11.521114 34.980846
28.044931 12.302362 33.740559
28.008804 13.099049 32.475361
15.517451 12.835954 55.234798
24.650824 1.872189 55.532345
25.597967 1.1892395 54.783012
26.214808 0.92059517 53.992325
26.532953 1.0349731 53.14986
26.670628 1.38694 52.265514
26.724234 1.8551941 51.35202
25.955025 3.4231277 50.219307
25.672176 4.3655157 49.174129
25.971737 4.5375547 48.270306
26.270939 4.7129016 47.36153
26.567387 4.894917 46.446888
26.887251 5.0475883 45.535133
27.23707 5.1610546 44.629929
27.474857 5.4339552 43.6782
27.516438 5.989728 42.638721
27.495237 6.6448536 41.555973
27.473654 7.3119049 40.453506
27.261536 8.2679052 39.241333
26.850901 9.5322313 37.902363
27.226616 9.6543798 36.929665
27.590441 9.7964878 35.946808
27.613796 10.45462 34.768433
27.480341 11.363443 33.477627
27.342607 12.295635 32.15535
27.148088 13.333232 30.767223
13.312093 13.342865 55.724182
14.841084 12.057519 54.878838
23.106798 2.3931246 55.081718
24.201113 1.548667 54.344048
25.131767 0.89748478 53.598984
25.717873 0.67370987 52.802315
25.851974 1.0247755 51.913086
25.992565 1.3729692 51.015736
25.766659 2.2029743 50.015728
24.581984 4.3021345 48.731819
24.93593 4.4032373 47.835541
25.230293 4.5852842 46.91798
25.540667 4.7488141 46.000458
25.883802 4.8707018 45.0896
26.251886 4.9605742 44.184361
26.621506 5.0498343 43.277077
27.006424 5.1193762 42.373383
27.303074 5.3135824 41.429813
27.281178 5.9605546 40.337273
27.25889 6.6192694 39.224892
26.786911 7.9350014 37.870846
27.091042 8.149951 36.875629
27.396709 8.366457 35.874557
27.704365 8.5839119 34.867783
26.755993 10.673455 33.121033
26.631378 11.564682 31.807774
26.427612 12.592193 30.415714
25.598394 14.594927 28.579605
12.591002 12.595839 55.357803
13.899286 11.602552 54.486683
13.868058 12.222935 53.435204
22.610052 2.1069303 53.866123
23.82617 1.1256008 53.160641
24.660709 0.60380936 52.404022
25.027336 0.66031265 51.558136
25.163977 1.0081072 50.655708
25.307423 1.3526545 49.7453
24.78167 2.5608945 48.641399
23.857519 4.3032732 47.386452
24.186323 4.4408374 46.471684
24.517679 4.5772624 45.553783
24.885817 4.6671982 44.644753
25.235554 4.7831655 43.726295
25.612976 4.8637824 42.815163
26.009523 4.9197826 41.909439
26.406487 4.9761562 41.002197
26.804283 5.032331 40.093624
27.202496 5.0888824 39.183525
26.577213 6.5832181 37.767555
26.733185 6.9972095 36.706917
27.032246 7.2140656 35.710049
27.343742 7.4168172 34.713268
27.234573 8.2347593 33.464996
25.772758 11.051559 31.370815
25.619053 11.983192 30.008656
25.461624 12.937435 28.613419
25.028328 14.325165 26.999249
11.836763 11.889179 54.98748
12.641989 11.510767 54.047997
12.556767 12.187378 52.97776
22.197882 1.709969 52.655918
23.410322 0.74758148 51.96273
24.185719 0.30693913 51.198158
24.329472 0.64064693 50.293121
24.469168 0.98454952 49.37759
24.334686 1.6780963 48.376247
22.29314 4.7960682 46.791889
23.015272 4.4379172 45.983879
23.486015 4.3972864 45.102814
23.835075 4.5137024 44.180222
24.204485 4.6054177 43.261711
24.60207 4.6615171 42.351433
25.000063 4.7179909 41.439644
25.45401 4.7004795 40.550194
25.926556 4.6575732 39.669647
25.990335 5.1704454 38.597771
26.228298 5.4528723 37.595699
26.468136 5.7375307 36.585716
26.710094 6.0241508 35.567825
26.953762 6.3133454 34.541733
27.043039 6.8270388 33.41658
26.478245 8.2876358 31.87944
24.630739 11.629923 29.48896
24.460527 12.584228 28.08102
24.49617 13.252703 26.78035
24.61035 13.816713 25.512184
23.65888 15.98991 23.450703
11.121063 11.13804 54.622162
11.403025 11.373194 53.607948
11.141916 12.245537 52.499275
21.868965 1.2079372 51.456024
22.906551 0.46921825 50.737228
23.466421 0.29789257 49.922409
23.566488 0.68505096 48.991928
23.667728 1.0767097 48.050621
20.633444 5.3597898 46.164745
21.381159 4.9866309 45.347721
22.090405 4.6560273 44.528851
22.727249 4.4120426 43.694252
23.209789 4.3614688 42.809586
23.691645 4.3109674 41.926174
24.173025 4.2602611 41.044113
24.653511 4.2099023 40.163208
25.133316 4.1596122 39.283566
25.177176 4.6890593 38.199898
25.402018 4.9843345 37.188709
25.628723 5.2820659 36.169121
25.857536 5.5819912 35.141132
26.088058 5.8847189 34.104412
26.23336 6.3111014 33.008411
26.0676 7.1809216 31.710899
23.633455 11.273451 28.964565
23.487593 12.1745 27.567986
23.627481 12.680435 26.33353
23.769424 13.19254 25.083309
23.864815 13.782242 23.781824
23.179367 15.537802 21.87545
8.7544737 11.693877 55.101921
10.120214 10.70996 54.218739
10.10492 11.279881 53.155258
20.073067 1.9220991 50.889023
21.362026 0.91244316 50.211159
22.034962 0.61841297 49.409615
21.980034 1.1898079 48.423775
21.796688 1.924489 47.385059
19.693432 5.5509982 44.690506
20.341148 5.3126078 43.833313
20.900204 5.1805878 42.951836
