# .PCD v0.7 - Point Cloud Data file format
VERSION 0.7
FIELDS x y z
SIZE 4 4 4
TYPE F F F
COUNT 1 1 1
WIDTH 1611
HEIGHT 1
VIEWPOINT 0 0 0 1 0 0 0
POINTS 1611
DATA ascii
53.333363 59.948647 7.9719272
53.33292 59.948292 8.006815
53.334457 59.949532 8.0416079
53.337891 59.952305 8.0763912
53.345478 59.958431 8.1112118
53.345802 59.958694 8.146244
53.324097 59.941166 8.1809788
53.324215 59.941261 8.2157154
53.330948 59.946697 8.2507324
53.335102 59.950054 8.2857943
53.335983 59.950764 8.3207436
53.328239 59.944511 8.3549957
53.330498 59.946335 8.390008
53.340359 59.9543 8.4259319
53.321552 59.93911 8.4585314
53.341766 59.955433 8.4960499
53.374752 59.982075 8.5360928
53.481487 60.068268 8.5894012
53.466885 60.00972 7.0544119
53.473339 60.014816 7.0882201
53.489754 60.027782 7.1183491
53.506706 60.041172 7.1487322
53.421169 59.973614 7.8243828
53.423725 59.975632 7.8598623
53.428177 59.979149 7.8952289
53.563534 60.086052 8.1839743
53.557938 60.081631 8.22155
53.563637 60.086132 8.2594395
53.575554 60.095547 8.2978306
53.593636 60.109825 8.336977
53.559494 60.082859 8.4099665
53.505772 59.993835 7.0482016
53.517513 60.002903 7.0801382
53.586224 60.055973 8.070837
53.581539 60.052357 8.1086044
53.581768 60.052532 8.146244
53.5909 60.059586 8.1840115
53.602421 60.068481 8.2220955
53.553638 59.984215 8.0354643
53.585518 60.008293 8.0715246
53.636219 60.046581 8.1081963
53.176529 59.699417 9.132226
53.15781 59.68528 9.1558981
53.586292 59.962555 7.923995
53.570343 59.950779 7.96211
53.614582 59.983448 7.9965549
53.599812 59.972542 8.0345736
53.210438 59.685032 9.07374
53.157265 59.645771 9.0842524
53.141018 59.633774 9.1087399
53.127338 59.623672 9.1338959
53.133522 59.628239 9.1675072
53.140656 59.633507 9.2017193
53.190422 59.631287 9.0579109
53.158142 59.607986 9.0764284
53.141243 59.595787 9.1004438
53.132847 59.589725 9.1276398
53.12838 59.586502 9.1563416
53.13377 59.590393 9.189395
53.176846 59.621487 9.2401915
53.198483 59.598682 9.0531254
53.175098 59.582184 9.0751181
53.153004 59.566593 9.0970211
53.148499 59.563416 9.1257849
53.144005 59.560242 9.1544323
53.145432 59.561249 9.185626
53.160973 59.572216 9.2233906
53.215527 59.57267 9.0518379
53.191959 59.556419 9.0737944
53.171398 59.54224 9.0963535
53.164066 59.537182 9.1239262
53.159531 59.534058 9.1525154
53.161633 59.535503 9.1839447
53.177212 59.546249 9.2216167
53.260765 59.565765 9.061204
53.218201 59.537083 9.0761509
53.202045 59.526196 9.1006355
53.189552 59.517776 9.1262245
53.189213 59.517548 9.1567039
53.195488 59.521774 9.1900978
53.228535 59.544048 9.2358389
53.267017 59.532425 9.0872002
53.237835 59.513206 9.1069012
53.226322 59.505627 9.1331415
53.223343 59.503666 9.162715
53.237713 59.51313 9.1998167
53.449318 60.190727 7.1666307
53.46508 60.196571 7.1990771
53.178879 60.186737 7.9724603
53.154934 60.18335 8.0008497
53.148975 60.184357 8.034111
53.156944 60.188805 8.0716696
53.198929 60.201702 8.1203356
53.23135 60.259308 8.8322449
53.450855 60.15424 7.1362796
53.169575 60.096245 7.1707191
53.449009 60.158184 7.2008419
53.458099 60.162331 7.2335267
53.448376 60.162441 7.2661824
53.441559 60.163185 7.2989445
53.434956 60.163979 7.3317862
53.42429 60.163891 7.3644867
53.410553 60.163128 7.3969822
53.396832 60.162365 7.4294047
53.391777 60.163509 7.4624929
53.395157 60.166519 7.4965014
53.424515 60.175308 7.5335779
53.183578 60.141727 7.8024421
53.148193 60.135895 7.8285499
53.144623 60.137341 7.8613911
53.139847 60.138515 7.8940868
53.134502 60.139565 7.9267578
53.129894 60.140793 7.9597316
53.122581 60.141403 7.9920826
53.117844 60.142616 8.0252409
53.119141 60.145252 8.0603428
53.127201 60.149502 8.0978394
53.143448 60.155716 8.1384478
53.163498 60.162876 8.1809912
53.150482 60.16222 8.2126904
53.160831 60.167133 8.2528038
53.172001 60.172283 8.2937469
53.160294 60.171963 8.3263483
52.995945 60.134796 8.2976665
52.995464 60.137062 8.3328829
53.008259 60.14257 8.374011
52.984829 60.139282 8.3997869
53.005539 60.146778 8.4452171
53.018627 60.152454 8.4879036
53.017506 60.154667 8.5243883
53.025242 60.159088 8.5654812
53.243011 60.218487 8.7544384
53.214943 60.21423 8.7806511
53.198956 60.212978 8.8130159
53.193863 60.214466 8.851366
53.21442 60.222458 8.9046593
53.152615 60.059425 7.1433806
53.158165 60.062416 7.1724792
53.163616 60.065403 7.2018743
53.209248 60.076618 7.2320805
53.437588 60.12537 7.267611
53.19706 60.077991 7.2924252
53.192532 60.079006 7.3227696
53.185829 60.079578 7.3530989
53.174309 60.079151 7.3831749
53.160591 60.078266 7.413043
53.153744 60.078812 7.4434094
53.146553 60.079288 7.4737988
53.148949 60.081783 7.5052643
53.171959 60.08865 7.5394182
53.382168 60.135204 7.5984082
53.388622 60.138775 7.6337266
53.404053 60.144279 7.6707702
53.394329 60.146694 7.7395563
53.162216 60.098976 7.7322154
53.145912 60.097565 7.7621083
53.138412 60.098053 7.7936764
53.102093 60.092274 7.8189921
53.10199 60.094364 7.8520346
53.101093 60.096294 7.885108
53.09914 60.098003 7.9181194
53.100773 60.100517 7.9522686
53.099079 60.10231 7.985765
53.097553 60.104153 8.0195036
53.095795 60.105957 8.0533724
53.104176 60.110043 8.09062
53.113697 60.11441 8.128684
53.123135 60.11879 8.1671991
53.108543 60.117771 8.1977739
53.119473 60.122532 8.2375011
53.124092 60.125893 8.2753868
52.973984 60.093941 8.2535629
52.962971 60.093639 8.2839575
52.96925 60.097313 8.3214741
52.987595 60.103798 8.3645563
52.992496 60.107216 8.4024563
52.985947 60.107994 8.4355555
52.998787 60.113304 8.4777842
53.003387 60.116722 8.5166702
53.009136 60.120438 8.5565109
53.031548 60.128109 8.6052208
53.220726 60.175323 8.74156
53.208744 60.175083 8.7759771
53.190647 60.173378 8.8070164
53.191093 60.176105 8.8482714
53.190525 60.178604 8.8892632
53.136608 60.023502 7.1166053
53.14682 60.027199 7.1451845
53.152573 60.03006 7.17418
53.161873 60.033623 7.2034869
53.167439 60.036488 7.2331185
53.165367 60.037888 7.2628722
53.162567 60.039154 7.2927494
53.158669 60.040215 7.3227129
53.154182 60.041164 7.3527565
53.148216 60.041832 7.3828058
53.142246 60.042503 7.4129257
53.134914 60.042908 7.4430008
53.132992 60.044388 7.4736433
53.132187 60.046104 7.5045657
53.131756 60.047905 7.5357184
53.143414 60.052139 7.5686293
53.141987 60.053772 7.6001692
53.140827 60.05547 7.631928
53.140575 60.057362 7.664021
53.132534 60.057682 7.6949711
53.123558 60.057812 7.7257843
53.117859 60.058617 7.7572546
53.112816 60.059563 7.7889504
53.088093 60.056458 7.816443
53.086441 60.058102 7.8489056
53.086704 60.060154 7.8820167
53.085201 60.061852 7.9149103
53.087406 60.064339 7.9489827
53.089104 60.066734 7.9831967
53.090012 60.068981 8.0174551
53.091988 60.071468 8.0522928
53.097176 60.07465 8.0884247
53.100769 60.077518 8.124403
53.112873 60.082222 8.1635904
53.096355 60.080833 8.1932936
53.101273 60.084038 8.2306128
52.959042 60.055557 8.2130508
52.938782 60.053249 8.2394915
52.945641 60.056812 8.2765322
52.95755 60.061501 8.3160839
52.992966 60.071358 8.3662205
52.993919 60.073727 8.4023781
52.989494 60.074928 8.4363842
53.00425 60.080379 8.4794712
53.009682 60.083801 8.5187483
53.012932 60.086761 8.5573606
53.034901 60.093925 8.6058092
53.219734 60.137653 8.7397699
53.203773 60.136524 8.7719669
53.201107 60.138386 8.8113003
53.198746 60.140335 8.8510351
53.199169 60.142929 8.8926115
53.120377 59.988213 7.0903997
53.131832 59.991901 7.1184664
53.141285 59.995247 7.1469707
53.152733 59.998978 7.1758327
53.153564 60.000801 7.2050676
53.160423 60.003735 7.2345886
53.166714 60.00658 7.2644224
53.164581 60.007896 7.2942858
53.162731 60.009274 7.3243093
53.159466 60.010399 7.3544102
53.15226 60.010796 7.3843799
53.145405 60.011265 7.4144211
53.140354 60.012074 7.4446721
53.138058 60.013401 7.4752827
53.134697 60.014538 7.5059299
53.134644 60.016308 7.5371008
53.138775 60.018883 7.5690174
53.136772 60.020309 7.6003695
53.132061 60.021225 7.6314759
53.127308 60.022141 7.6626825
53.122189 60.022995 7.6939321
53.112038 60.022881 7.7243509
53.108265 60.024002 7.7560086
53.104862 60.025204 7.7878752
53.085438 60.023293 7.8163729
53.083427 60.024773 7.8486605
53.083744 60.026714 7.8816881
53.086037 60.029057 7.9154487
53.090508 60.031849 7.9500694
53.093315 60.034328 7.9845643
53.096138 60.036827 8.0193624
53.098999 60.039352 8.0544739
53.102654 60.042053 8.0901413
53.105919 60.044697 8.1260118
53.112473 60.048019 8.1633167
53.100899 60.047703 8.1946783
53.103779 60.050312 8.2312431
52.928471 60.016693 8.2012415
52.929485 60.018833 8.2354851
52.942726 60.023491 8.2748938
53.104538 60.058731 8.3763227
53.046543 60.04887 8.3884401
53.003613 60.042053 8.4059372
53.020771 60.04768 8.4497614
53.037167 60.053185 8.4939442
53.037586 60.055386 8.5311766
53.045944 60.059273 8.5725946
53.230541 60.100349 8.7036438
53.220669 60.100571 8.7389889
53.210339 60.100697 8.7741165
53.204647 60.10181 8.8117981
53.207531 60.104771 8.8544321
53.213818 60.108479 8.8994064
53.117924 59.955925 7.0641289
53.122337 59.958187 7.0920949
53.133087 59.961536 7.1201611
53.14629 59.965321 7.1485796
53.157475 59.968788 7.177453
53.183117 59.974758 7.2067957
53.181019 59.984112 7.3875809
53.172379 59.984249 7.4177341
53.165264 59.984661 7.4480362
53.161659 59.985691 7.4787307
53.160259 59.987118 7.509789
53.15723 59.98827 7.5408268
53.15094 59.988842 7.5715809
53.141312 59.988823 7.6019363
53.131687 59.988808 7.6322889
53.131523 59.99049 7.6641808
53.123665 59.990799 7.6949425
53.116604 59.991249 7.7258892
53.111755 59.992107 7.7573276
53.110008 59.993538 7.7895169
53.097832 59.993069 7.8196001
53.095455 59.994396 7.8518844
53.094105 59.995922 7.8845859
53.102375 59.999237 7.9199238
53.106392 60.001785 7.9545536
53.109016 60.004093 7.9891214
53.111652 60.006416 8.0239868
53.115547 60.008995 8.0595312
53.120461 60.01178 8.095727
53.125687 60.014645 8.1323833
53.121193 60.015686 8.1661272
53.110928 60.01564 8.1979837
52.928024 59.982658 8.1672068
52.920574 59.983032 8.1979485
52.936642 59.987926 8.2378626
53.115452 60.024239 8.3436098
53.114208 60.025967 8.3797464
53.11488 60.028076 8.4169292
53.111416 60.0294 8.4525785
53.107319 60.030609 8.4881172
53.092682 60.029755 8.5189142
53.087456 60.03075 8.5541
53.112827 60.0378 8.6044712
53.252708 60.067627 8.7136669
53.228123 60.064915 8.7415934
53.219097 60.065296 8.7774353
53.212334 60.066132 8.8145638
53.214165 60.068707 8.8566227
53.235798 60.075298 8.9104013
53.124683 59.926865 7.0656276
53.128845 59.928944 7.093627
53.157845 59.934994 7.1212626
53.156532 59.959152 7.6050096
53.149567 59.959587 7.6358757
53.150738 59.961399 7.6681256
53.150589 59.963001 7.7003846
53.140808 59.962975 7.7310686
53.134808 59.963596 7.7624936
53.131344 59.964653 7.7945275
53.118809 59.964157 7.8247128
53.119678 59.965973 7.8579273
53.118046 59.967365 7.890779
53.127529 59.970695 7.9266434
53.129829 59.972797 7.9610486
53.134171 59.975269 7.996305
53.138554 59.977768 8.0319109
53.142979 59.980289 8.0678701
53.146885 59.982738 8.1040134
53.147305 59.984585 8.1393576
53.144947 59.98595 8.1740179
52.927334 59.948959 8.1334677
52.915016 59.948429 8.1622286
52.928406 59.952511 8.2005615
53.141956 59.99268 8.31707
53.134865 59.993244 8.3508854
53.13068 59.994339 8.3859787
53.127472 59.995621 8.4216452
53.122921 59.996666 8.4569035
53.122753 59.99852 8.4942894
53.12772 60.001335 8.5343313
53.187435 60.014282 8.6009579
53.263744 60.032436 8.7180576
53.252361 60.032364 8.7528992
53.257084 60.035309 8.7963009
53.162422 59.90102 7.0374699
53.148853 59.900341 7.0663614
53.389061 59.9715 7.8131986
53.370411 59.970192 7.8448877
53.166069 59.93911 7.8356047
53.169556 59.941246 7.8699055
53.168884 59.942726 7.9035039
53.170403 59.944569 7.9378729
53.176208 59.947121 7.9736481
53.183468 59.949932 8.0101986
53.19117 59.952831 8.0472851
53.196327 59.955334 8.0840282
53.207081 59.958775 8.1228924
53.194756 59.958424 8.1547451
52.908199 59.912582 8.0938759
52.905598 59.913685 8.1256628
52.921764 59.917934 8.1644182
53.178932 59.962608 8.2941895
53.174328 59.963566 8.3291912
53.169445 59.964481 8.3642244
53.166134 59.965668 8.4000454
53.166965 59.967567 8.437809
53.158684 59.96793 8.4718637
53.171902 59.971973 8.5156841
53.582359 59.968098 7.9276319
53.567493 59.967545 7.9623933
53.603188 59.974571 8.0093451
52.888069 59.876877 8.0547848
52.888409 59.878338 8.0870619
52.902981 59.882008 8.1245556
53.261314 59.939068 8.287241
53.250561 59.93903 8.3206902
53.254063 59.941223 8.3596554
53.256336 59.943237 8.3984814
53.249294 59.943798 8.4337902
53.215515 59.94014 8.4578133
52.895996 59.845985 8.0253296
52.877747 59.844685 8.0513611
52.881767 59.84655 8.0846949
52.905132 59.851192 8.1251183
52.889957 59.814606 8.0234356
52.876175 59.813992 8.0507879
52.876575 59.815228 8.0828161
52.91534 59.82151 8.1285019
52.886528 59.783794 8.0223598
52.880581 59.784161 8.0521622
52.916847 59.789566 8.0962944
52.902634 59.755268 8.0274115
53.233994 59.709023 9.1015873
53.192772 59.706615 9.1172543
53.18362 59.70676 9.1534433
53.2332 59.67136 9.0569124
53.196537 59.669632 9.0756807
53.163521 59.66814 9.096096
53.154488 59.668262 9.131856
53.145443 59.668385 9.1676598
53.217781 59.633945 9.0453892
53.182564 59.632607 9.0647898
53.156338 59.63176 9.0893574
53.140686 59.631489 9.1205225
53.14011 59.632057 9.1617947
53.149609 59.63319 9.2103586
53.219456 59.597786 9.044529
53.186058 59.596825 9.0650434
53.154686 59.59594 9.086237
53.138645 59.595715 9.1170349
53.135227 59.596031 9.1562548
53.144657 59.596909 9.2045946
53.244987 59.562462 9.058506
53.197975 59.561359 9.0706511
53.166481 59.560726 9.0918627
53.156696 59.560757 9.1269007
53.148605 59.560841 9.1631165
53.176178 59.562031 9.2241144
53.225716 59.526047 9.0863008
53.197536 59.52573 9.1099815
53.174847 59.525509 9.1368132
53.197681 59.526138 9.1941528
53.213284 60.257259 8.850234
53.22604 60.258057 8.8810873
53.2136 60.228863 8.7848549
53.188934 60.220093 8.8193436
53.182495 60.216003 8.8515606
53.186024 60.214462 8.8827009
53.205044 60.216835 8.9127407
53.044876 60.177395 8.4875431
53.018948 60.168476 8.5252647
53.021378 60.166725 8.5566387
53.028873 60.166252 8.5869217
53.050369 60.169266 8.614748
53.133347 60.187519 8.6329393
53.216404 60.198387 8.7510738
53.194973 60.190762 8.7856836
53.185097 60.185997 8.8185186
53.178432 60.182041 8.8506603
53.177612 60.179523 8.8820238
53.190697 60.180374 8.9122877
53.24284 60.190594 8.9405699
53.153454 60.200649 8.0420771
53.156742 60.198895 8.0773907
53.177307 60.201458 8.1066856
52.996822 60.142307 8.3683376
52.971233 60.133778 8.4074535
52.978886 60.133366 8.4377089
52.990067 60.133808 8.4671125
52.993919 60.132481 8.4981594
52.995483 60.130615 8.5295515
53.000118 60.129498 8.5601664
53.009693 60.129562 8.5897655
53.027966 60.131691 8.6178694
53.067917 60.138943 8.6426744
53.146164 60.155174 8.6624069
53.230572 60.172752 8.6828079
53.212585 60.166214 8.7179813
53.204056 60.161926 8.7514353
53.186283 60.155518 8.7854738
53.187809 60.153629 8.8170738
53.184986 60.150749 8.8488674
53.184597 60.148445 8.8802156
53.188873 60.147228 8.9110546
53.212776 60.150517 8.9407415
53.138519 60.166725 7.9746017
53.12236 60.160385 8.0173969
53.116493 60.156544 8.055788
53.11911 60.154751 8.0908003
53.126091 60.154007 8.1241512
53.134869 60.15369 8.1568375
53.148026 60.154408 8.1881189
52.965412 60.109177 8.2784882
52.961418 60.106033 8.3125134
52.970051 60.105854 8.3427134
52.978596 60.105656 8.3729181
52.967274 60.100857 8.4081411
52.974602 60.100395 8.4383669
52.984848 60.100609 8.4678745
52.992989 60.100338 8.4978628
52.996174 60.098938 8.5288496
53.000328 60.097767 8.5595074
53.010582 60.097988 8.5889244
53.029232 60.100105 8.6169109
53.063457 60.105717 8.6425886
53.134937 60.119656 8.6632099
53.195858 60.131138 8.6866789
53.210289 60.132175 8.7172527
53.206509 60.129158 8.7500696
53.195957 60.12466 8.7833147
53.191441 60.121525 8.8155432
53.192692 60.119682 8.8469753
53.193703 60.117794 8.8782482
53.198074 60.116657 8.9091234
53.214977 60.118256 8.9392176
53.131474 60.137009 7.8665166
53.107021 60.128998 7.9139872
53.10284 60.125694 7.952435
53.098091 60.12228 7.9907341
53.092823 60.118774 8.0288486
53.090607 60.115986 8.0654678
53.095829 60.114899 8.0991735
53.10281 60.114212 8.132164
53.11092 60.113785 8.164711
52.942299 60.073849 8.2526388
52.942024 60.071693 8.2854748
52.949169 60.071205 8.3159304
52.97081 60.073925 8.3423109
52.981129 60.074131 8.3719912
52.983582 60.072609 8.4036884
52.979244 60.069607 8.4368677
52.99485 60.07098 8.4651327
53.007526 60.071705 8.4941845
53.010361 60.07029 8.5253525
53.015221 60.069324 8.555975
53.028751 60.070232 8.5848961
53.049053 60.07259 8.6127405
53.089802 60.079304 8.637517
53.144524 60.088951 8.6608829
53.207901 60.100372 8.6840382
53.220989 60.10107 8.7148542
53.206581 60.095959 8.7489872
53.199776 60.09248 8.7817802
53.194763 60.089397 8.814044
53.196117 60.087669 8.8454485
53.202152 60.086926 8.8763266
53.214123 60.087421 8.9067459
53.233089 60.089363 8.9368362
53.387028 60.175159 7.4657731
53.400112 60.175499 7.5018368
53.092777 60.097668 7.8093433
53.091469 60.095123 7.8472242
53.087852 60.092094 7.885787
53.082138 60.088631 7.92486
53.080574 60.086094 7.9618626
53.078243 60.083408 7.9988627
53.080143 60.08165 8.0339622
53.083534 60.080227 8.0683155
53.088219 60.07909 8.1020498
53.092346 60.077847 8.1358395
52.924393 60.040047 8.2255564
52.9249 60.038177 8.2580948
52.934444 60.038227 8.2876968
52.959045 60.041443 8.3129435
52.993744 60.046753 8.3357563
53.094406 60.0658 8.3416481
53.024765 60.049274 8.3929195
53.00539 60.043289 8.4301615
53.019302 60.044224 8.4590588
53.031513 60.044804 8.4884338
53.038971 60.044399 8.5188599
53.047543 60.044228 8.5490217
53.060371 60.044926 8.5783787
53.07745 60.046486 8.6070747
53.121799 60.053555 8.6315165
53.181438 60.063667 8.6544209
53.237492 60.07299 8.6789322
53.242542 60.072021 8.71105
53.215248 60.064594 8.746891
53.208637 60.061337 8.7797041
53.204853 60.058662 8.8118916
53.216938 60.059147 8.8424253
53.219769 60.0578 8.8737097
53.253582 60.062557 8.9028368
53.433685 60.160847 7.1767149
53.439732 60.159573 7.2183466
53.154408 60.095718 7.4272175
53.142315 60.090813 7.474617
53.142521 60.088566 7.5146561
53.169441 60.092007 7.5401678
53.17551 60.091011 7.5769525
53.153542 60.084114 7.6277871
53.151123 60.081371 7.668118
53.126293 60.073956 7.7188315
53.108631 60.068092 7.7652702
53.078171 60.059608 7.8167572
53.074924 60.056824 7.8552184
53.075638 60.054871 7.8916435
53.075378 60.052738 7.928226
53.078346 60.051277 7.9632497
53.079556 60.049469 7.9987755
53.08168 60.047863 8.0337343
53.086021 60.046715 8.0676899
53.091045 60.045712 8.1012659
52.916035 60.008472 8.1955833
52.914845 60.006367 8.2287312
52.92778 60.007095 8.2571926
52.944515 60.008579 8.2845955
53.098732 60.037342 8.2723761
53.102364 60.036118 8.3054152
53.101742 60.034061 8.3394356
53.101322 60.032063 8.3731594
53.102959 60.030476 8.406148
53.102192 60.028435 8.4395018
53.100563 60.026237 8.4728031
53.095646 60.023415 8.5065279
53.092224 60.020905 8.5396299
53.099426 60.020454 8.5704708
53.132545 60.024982 8.5967579
53.177746 60.031788 8.6216068
53.228207 60.039555 8.6464472
53.236294 60.0355 8.7433233
53.23782 60.033943 8.7754316
53.24815 60.03405 8.8065081
53.262634 60.034931 8.8372364
53.143803 60.072353 7.1435871
53.150204 60.071392 7.1819263
53.166759 60.072525 7.2135797
53.213932 60.079937 7.2260799
53.173283 60.069336 7.2937531
53.154949 60.063362 7.346508
53.138073 60.057728 7.3975782
53.126221 60.05315 7.4449859
53.121784 60.050102 7.4876065
53.120182 60.047642 7.5282626
53.127766 60.047039 7.5636892
53.126156 60.044609 7.6038032
53.121677 60.041626 7.6450386
53.113789 60.037991 7.6875467
53.100967 60.033413 7.7319241
53.094673 60.030144 7.7726498
53.074085 60.024109 7.8194003
53.071709 60.021664 7.8573489
53.073124 60.01997 7.8933573
53.079308 60.019215 7.9271688
53.087196 60.018791 7.9601979
53.091499 60.017681 7.9945631
53.095783 60.016575 8.0287895
53.100048 60.015476 8.0628777
52.921329 59.979595 8.1609316
52.909027 59.975491 8.1980801
52.923607 59.976494 8.2259398
52.943874 59.978558 8.2521439
53.113575 60.008621 8.2335539
53.117348 60.007481 8.2668543
53.120743 60.006275 8.3001137
53.116375 60.003639 8.3352823
53.113686 60.001328 8.3696918
53.113224 59.999447 8.4032698
53.112766 59.997578 8.4366102
53.1115 59.995571 8.4698935
53.117268 59.994865 8.5014639
53.123672 59.994278 8.5328207
53.14735 59.996822 8.5609064
53.182392 60.001408 8.5873289
53.236057 60.009312 8.6112833
53.127541 60.033741 7.1142378
53.138214 60.033676 7.1495953
53.145851 60.03302 7.1869469
53.154743 60.032612 7.2233882
53.148937 60.029381 7.2690306
53.14716 60.026947 7.3117118
53.143341 60.024139 7.3552589
53.134052 60.020313 7.4016061
53.12764 60.017059 7.4457388
53.12521 60.014584 7.4871664
53.123302 60.012222 7.5279455
53.128956 60.011295 7.5643606
53.124321 60.008457 7.6059723
53.11861 60.005436 7.6477175
53.108131 60.001553 7.6913719
53.10223 59.998547 7.7322788
53.098606 59.995975 7.771698
53.097935 59.993969 7.8094163
53.087254 59.990147 7.8512421
53.08828 59.988483 7.8875403
53.09972 59.98872 7.9193015
53.102997 59.98748 7.9543643
53.109043 59.986748 7.9881806
53.116276 59.986233 8.0214491
53.123493 59.985722 8.0546513
52.904072 59.944813 8.1671705
52.917633 59.945572 8.1952982
52.942745 59.948372 8.2197695
53.127872 59.979382 8.1944389
53.137089 59.979256 8.2263956
53.142872 59.978523 8.2593288
53.147419 59.977581 8.2925062
53.144501 59.975349 8.3275404
53.142876 59.973354 8.3619452
53.143253 59.971722 8.3955975
53.145939 59.970493 8.4284973
53.145847 59.9688 8.4618425
53.155079 59.968712 8.4930239
53.17194 59.969925 8.5226927
53.201778 59.973339 8.5501146
53.257462 59.981106 8.5734816
53.110291 59.995232 7.0859017
53.122433 59.995445 7.1200728
53.134617 59.995663 7.1542454
53.140858 59.994808 7.1923695
53.151176 59.99469 7.2277303
53.170448 59.996185 7.2574358
53.171349 59.994381 7.2986813
53.169312 59.992065 7.3414049
53.162731 59.98896 7.3864307
53.154808 59.985641 7.4317365
53.153107 59.98344 7.473042
53.154324 59.981773 7.512413
53.150833 59.97929 7.554029
53.137768 59.975159 7.6002178
53.129353 59.971867 7.643424
53.134907 59.971012 7.6792598
53.1241 59.967342 7.722784
53.121655 59.965141 7.7618608
53.122147 59.963455 7.7992764
53.113796 59.96027 7.8403158
53.117386 59.959141 7.8757887
53.125492 59.958782 7.9092269
53.134789 59.95863 7.9421353
53.145489 59.958714 7.9744754
52.897167 59.915379 8.1039705
52.896507 59.913715 8.137229
52.911865 59.91473 8.1646328
52.942711 59.918304 8.1869516
53.191093 59.957817 8.138938
53.172417 59.953064 8.1804695
53.171333 59.951229 8.2159996
53.185848 59.951958 8.246747
53.19104 59.951164 8.2801886
53.197632 59.950603 8.3131428
53.192116 59.948086 8.3490953
53.195347 59.946995 8.3825645
53.206203 59.94714 8.414114
53.20153 59.944794 8.4490967
53.21188 59.944862 8.4806166
53.244987 59.948555 8.5076637
53.110867 59.958199 7.0878963
53.125515 59.958828 7.1202621
53.144367 59.960159 7.14991
53.173985 59.963287 7.1727104
53.466698 60.008446 7.0731125
53.505131 60.012829 7.0954218
52.879543 59.882675 8.0779352
52.886612 59.882336 8.1082497
52.899532 59.882904 8.1363888
53.288292 59.941612 8.0330219
53.63866 59.993996 7.9519305
53.545322 59.977852 8.023632
53.596073 59.983879 8.0476017
53.248798 59.929134 8.1925669
53.25732 59.928864 8.2259064
53.119743 59.922615 7.0840635
53.146725 59.925125 7.1080098
52.87854 59.854034 8.0122395
52.867634 59.851105 8.0499516
52.86948 59.85004 8.0822153
52.883385 59.850719 8.1097775
52.902809 59.852184 8.1354542
53.575821 59.945446 7.973321
52.874378 59.822212 8.014472
52.866013 59.819862 8.0510464
52.866375 59.818691 8.0837984
52.896057 59.821404 8.1053467
52.908741 59.821857 8.1335592
52.90583 59.794945 8.0020227
52.873127 59.789841 8.0486498
52.904518 59.791405 8.1024933
52.895599 59.762478 8.0067568
52.883022 59.760078 8.0451422
53.177338 59.695724 9.1004581
53.168839 59.694382 9.1292028
53.160446 59.693054 9.1576071
53.16222 59.692509 9.1859789
53.182476 59.693367 9.2149458
53.200436 59.667683 9.0696611
53.148983 59.663662 9.0988483
53.140743 59.662521 9.1272774
53.132614 59.661396 9.1553726
53.135689 59.661015 9.1834679
53.151722 59.661488 9.2119579
53.175919 59.662491 9.240984
53.174362 59.635807 9.0683622
53.143333 59.633556 9.0972672
53.129112 59.632259 9.1255445
53.126862 59.631641 9.1536007
53.132206 59.631447 9.1816607
53.137569 59.631256 9.2096539
53.169937 59.632557 9.2388792
53.172085 59.605663 9.0668402
53.141037 59.603825 9.0956945
53.12682 59.602768 9.1239128
53.123409 59.602207 9.1518831
53.128788 59.602051 9.1798639
53.13414 59.601894 9.2077789
53.164009 59.602848 9.2367916
53.191475 59.57645 9.0650826
53.14917 59.574615 9.0941153
53.139622 59.573959 9.1224155
53.133785 59.573437 9.150425
53.129711 59.572979 9.1781988
53.145889 59.573242 9.20648
53.16214 59.573502 9.2349072
53.16827 59.545624 9.0925102
53.156628 59.545097 9.1209421
53.150642 59.54472 9.1490736
53.145527 59.544365 9.1769409
53.161804 59.544556 9.2053261
53.216087 59.545696 9.235611
53.199062 59.516388 9.1196394
53.184853 59.516029 9.1480026
53.198261 59.516098 9.176651
53.211567 59.516163 9.2053814
52.971947 60.130817 8.3073807
52.983376 60.136059 8.3727884
52.95171 60.121536 8.402132
52.963394 60.126896 8.4353724
52.97821 60.13369 8.4692631
52.983353 60.136047 8.5022402
52.980671 60.134819 8.5342197
52.98877 60.138531 8.5678053
53.009064 60.147839 8.6036205
53.186253 60.229084 8.8071022
53.172001 60.222549 8.8384867
53.17292 60.222969 8.8733282
53.12463 60.163609 7.976728
53.110489 60.15731 8.0113029
53.102627 60.153809 8.0453176
53.109104 60.156693 8.0788059
53.120949 60.161968 8.1123848
53.167473 60.182697 8.146244
52.929451 60.076656 8.2725897
52.933952 60.078663 8.3044434
52.947304 60.08461 8.3370333
52.958542 60.089619 8.3697653
52.962921 60.091568 8.402113
52.955654 60.088329 8.433321
52.966961 60.093369 8.4665604
52.974728 60.096828 8.4996061
52.977859 60.098225 8.532176
52.983929 60.100929 8.5652733
53.000381 60.108257 8.6002407
53.182785 60.189518 8.7689285
53.171684 60.18457 8.8010178
53.16206 60.180286 8.8331947
53.159832 60.179295 8.8669872
53.174706 60.185921 8.9051924
53.110519 60.120602 7.8103094
53.099129 60.115673 7.8451147
53.082317 60.108402 7.8801637
53.082489 60.108475 7.9134092
53.081245 60.107937 7.9467597
53.077778 60.106438 7.9802117
53.074574 60.105053 8.0135698
53.069447 60.102833 8.0469208
53.075584 60.105488 8.0798826
53.082615 60.108532 8.1129808
53.097565 60.114998 8.146244
53.09428 60.113579 8.1796455
52.928596 60.041904 8.2091303
52.907551 60.032799 8.2398262
52.911503 60.034512 8.2712078
52.922394 60.039223 8.303093
52.959347 60.055206 8.3370829
52.96661 60.05835 8.3694906
52.968277 60.059071 8.4015408
52.963223 60.056885 8.4329147
52.977898 60.063232 8.4665022
52.987793 60.067513 8.499815
52.987602 60.067429 8.53193
52.993332 60.069908 8.5649509
53.009838 60.077049 8.5998907
53.036034 60.088379 8.6369381
53.203323 60.160748 8.7012911
53.190979 60.155407 8.7335005
53.183201 60.152042 8.7663898
53.172092 60.147236 8.7983475
53.168362 60.145622 8.8317871
53.165829 60.144527 8.8654356
53.167274 60.145153 8.9000587
53.108795 60.083466 7.7784915
53.067291 60.066044 7.8168087
53.063992 60.064655 7.8501019
53.061771 60.063725 7.8832159
53.056301 60.061428 7.9165449
53.058456 60.062332 7.9492068
53.060333 60.063122 7.981936
53.061543 60.063629 8.0147409
53.063377 60.0644 8.0475521
53.067749 60.066235 8.0803461
53.071342 60.067741 8.1132526
53.080215 60.071468 8.146244
52.914997 60.002113 8.1773949
52.896172 59.994213 8.2081022
52.902519 59.996876 8.2392559
52.916939 60.00293 8.2709389
52.947643 60.015816 8.3039198
53.077282 60.070236 8.3446102
53.012177 60.042908 8.3723078
53.003922 60.039444 8.4038248
52.99165 60.03429 8.4347219
53.001644 60.038486 8.4679518
53.011608 60.042667 8.5014124
53.012962 60.043236 8.5338917
53.02116 60.046677 8.5674505
53.032394 60.051392 8.6017027
53.098141 60.078991 8.6458435
53.19104 60.117989 8.6966457
53.19466 60.119507 8.7317705
53.182491 60.114399 8.7636347
53.17886 60.112873 8.797123
53.174175 60.110909 8.8302765
53.174568 60.111073 8.8645744
53.177238 60.112194 8.8994732
53.197647 60.120762 8.9392347
53.125046 60.053989 7.1417637
53.130939 60.056389 7.1732426
53.140438 60.060257 7.2036767
53.424179 60.175758 7.1845298
53.161297 60.068748 7.3324614
53.129768 60.055912 7.3748693
53.117401 60.05088 7.4115958
53.110291 60.047985 7.4467392
53.105667 60.046104 7.4811325
53.104935 60.045807 7.5145516
53.112629 60.048935 7.5461755
53.118023 60.051132 7.5784373
53.113739 60.049389 7.6126418
53.116676 60.050583 7.6454754
53.103844 60.045361 7.6809654
53.093639 60.041206 7.715755
53.086037 60.038113 7.7499385
53.077747 60.034737 7.7840328
53.057354 60.026436 7.8193517
53.055828 60.025814 7.8522019
53.056343 60.026024 7.8848248
53.057198 60.026371 7.9174323
53.061619 60.028172 7.9498086
53.063286 60.028851 7.98245
53.066395 60.030117 8.0150633
53.069496 60.03138 8.0477495
53.072773 60.032715 8.0805044
53.076027 60.034039 8.1133356
53.081585 60.036301 8.146244
52.890457 59.9585 8.1769772
52.895844 59.960693 8.2078362
52.916821 59.969231 8.2393703
52.943321 59.980019 8.2716541
53.082794 60.036793 8.3111811
53.081036 60.036076 8.3440447
53.080097 60.035694 8.376935
53.081287 60.036179 8.4100018
53.081768 60.036373 8.4430227
53.078056 60.034863 8.475563
53.057476 60.026485 8.5058413
53.05476 60.025383 8.5381498
53.055637 60.025738 8.5709419
53.074356 60.033356 8.6066828
53.13467 60.057911 8.650177
53.202953 60.085705 8.696578
53.196537 60.083092 8.7296953
53.185799 60.078724 8.7617512
53.180683 60.076637 8.7948055
53.178677 60.075821 8.8284702
53.18235 60.077316 8.8634863
53.192604 60.08149 8.9002848
53.22308 60.093899 8.9427757
53.109467 60.011856 7.1182413
53.118973 60.015606 7.1480742
53.125088 60.018017 7.1792765
53.135361 60.022068 7.2092628
53.135834 60.022255 7.2425776
53.131062 60.020374 7.2774944
53.129826 60.019886 7.3112688
53.127823 60.019096 7.3452282
53.120689 60.016281 7.3805189
53.113537 60.013458 7.4156489
53.109627 60.011917 7.4498158
53.1087 60.011551 7.4831953
53.104992 60.01009 7.5171704
53.107609 60.011124 7.5497293
53.111988 60.012848 7.5820003
53.105522 60.0103 7.6163983
53.10194 60.008884 7.6501412
53.09404 60.005768 7.6845059
53.085724 60.002491 7.718749
53.081562 60.000847 7.7522159
53.078529 59.999649 7.7854414
53.064301 59.994038 7.8199024
53.061871 59.99308 7.8527918
53.062309 59.993252 7.8853564
53.068996 59.995892 7.9174213
53.075123 59.998306 7.9496808
53.077847 59.999382 7.9822826
53.080791 60.000542 8.0149374
53.083752 60.001709 8.0476608
53.088524 60.003593 8.08041
53.092682 60.005234 8.1132784
52.882504 59.922325 8.146244
52.892868 59.926414 8.176877
52.91539 59.935299 8.2080364
52.959999 59.952896 8.2404938
53.094246 60.005852 8.2781792
53.094315 60.005878 8.3111668
53.089943 60.004154 8.3438454
53.089497 60.003979 8.3767424
53.089096 60.003819 8.4096327
53.086742 60.002892 8.4423094
53.087276 60.003101 8.4752674
53.082008 60.001022 8.507494
53.091503 60.004768 8.5416641
53.102436 60.009083 8.5762749
53.137417 60.022881 8.6150713
53.221886 60.056198 8.6633482
53.234173 60.061047 8.7001162
53.20723 60.050419 8.7293873
53.199078 60.047203 8.7619772
53.193859 60.045143 8.7950268
53.198238 60.046871 8.8301954
53.199436 60.047344 8.864687
53.224899 60.057388 8.9054375
53.093304 59.970184 7.0954938
53.104828 59.974583 7.124177
53.117725 59.979511 7.1526499
53.123295 59.98164 7.1838918
53.129379 59.983963 7.215096
53.139061 59.987659 7.2453127
53.147903 59.991039 7.2760067
53.145638 59.990173 7.3101363
53.142841 59.989105 7.3443608
53.137207 59.986954 7.3792791
53.131386 59.98473 7.4141145
53.127293 59.983166 7.4483919
53.127293 59.983166 7.4816232
53.127293 59.983166 7.5148544
53.125034 59.982304 7.5485578
53.118759 59.979904 7.5830026
53.106937 59.975391 7.6183329
53.105206 59.974731 7.651629
53.103111 59.97393 7.6849446
53.096497 59.971401 7.7188945
53.091099 59.969341 7.7525201
53.089127 59.968586 7.785583
53.081032 59.965496 7.8193111
53.079517 59.964916 7.8521628
53.080898 59.965443 7.8847103
53.090221 59.969006 7.9166431
53.09264 59.969929 7.9492745
53.097195 59.971668 7.9818382
53.101765 59.973415 8.0145063
53.106419 59.975193 8.0472784
52.866913 59.883709 8.0858355
52.872223 59.885738 8.1159782
52.885921 59.890968 8.146244
52.917858 59.903168 8.1770401
53.108635 59.97604 8.2122726
53.115784 59.978767 8.2455359
53.118374 59.979759 8.2787533
53.117794 59.979538 8.3118467
53.113335 59.977833 8.3446569
53.111355 59.977077 8.3775644
53.110775 59.976856 8.4105568
53.109074 59.976208 8.4434175
53.106995 59.975414 8.4761953
53.111355 59.977077 8.5097475
53.124031 59.981918 8.5445614
53.155216 59.993832 8.5824671
53.207726 60.013889 8.624568
53.225719 60.02076 8.7306223
53.229382 60.02216 8.7657642
53.229294 60.022125 8.8001623
53.245991 60.028503 8.8384609
53.091152 59.934383 7.0679555
53.097942 59.936893 7.098115
53.115433 59.943356 7.1245923
53.130966 59.949097 7.1521544
53.149368 59.955898 7.1791134
53.170624 59.963753 7.2055731
53.439865 60.063259 7.1550145
53.446392 60.06567 7.1897621
53.449348 60.066765 7.2256942
53.464008 60.072182 7.2584429
53.442665 60.064293 7.3378625
53.426746 60.058411 7.3784766
53.410408 60.052372 7.4188194
53.400612 60.048752 7.457346
53.391541 60.045399 7.4954939
53.38385 60.042557 7.5331602
53.126102 59.9473 7.6169643
53.125916 59.947231 7.6500769
53.133915 59.950188 7.6818576
53.128643 59.948238 7.7158217
53.124283 59.946629 7.7495365
53.122238 59.945873 7.782856
53.121063 59.945438 7.8160272
53.111565 59.941929 7.8500385
53.115147 59.943249 7.8826189
53.118504 59.944492 7.9152999
53.124763 59.946804 7.9478569
53.131538 59.94931 7.9805293
52.857281 59.84795 8.026372
52.84951 59.845078 8.0566101
52.855007 59.847111 8.0863609
52.870338 59.852776 8.1161251
53.153385 59.957382 8.146244
53.140079 59.952465 8.1794863
53.136883 59.951283 8.2126541
53.144226 59.953999 8.2461128
53.148006 59.955395 8.2795782
53.145416 59.954437 8.3127623
53.145313 59.954399 8.3460579
53.1432 59.953617 8.3791895
53.144684 59.954166 8.4126053
53.146328 59.954773 8.4460716
53.145027 59.954296 8.4792347
53.154396 59.957756 8.5137272
53.178417 59.966633 8.5504713
53.233738 59.98708 8.5924826
53.10498 59.904633 7.0671301
53.11858 59.909492 7.0948133
53.149967 59.920708 7.1164527
53.434284 60.022289 7.0513377
53.433121 60.021873 7.0882249
53.449669 60.027786 7.1193662
53.471687 60.035652 7.1491861
53.416149 60.015808 7.6019273
53.402039 60.010769 7.6404924
53.371029 59.999687 7.6812654
53.357601 59.994892 7.7188902
53.342342 59.989441 7.7564383
53.331867 59.985699 7.7930827
53.307938 59.977146 7.8308821
53.294632 59.972393 7.8671489
53.278816 59.966743 7.9033122
53.182056 59.932171 7.9447098
52.871243 59.821121 7.9962153
52.855316 59.815434 8.0269556
52.846958 59.812447 8.0570669
52.84898 59.813168 8.0867462
52.878674 59.823776 8.1161528
53.204811 59.9403 8.146244
53.187263 59.934032 8.1798925
53.185654 59.933456 8.2135048
53.191956 59.935707 8.2473536
53.195953 59.937138 8.2812405
53.19553 59.936985 8.3149652
53.190498 59.935188 8.348362
53.194225 59.93652 8.382349
53.197281 59.937611 8.4163599
53.187298 59.934044 8.4490891
53.196358 59.937283 8.4837828
53.224628 59.94738 8.521122
53.301926 59.974998 8.5658951
53.147888 59.884865 7.055294
53.457809 59.991817 7.0477209
53.47163 59.996586 7.0797372
53.364983 59.959785 7.8262792
53.351528 59.955143 7.8630667
53.331486 59.948223 7.900075
53.318596 59.943775 7.9361296
52.873905 59.790318 7.9966774
52.852886 59.783062 8.0275555
52.851376 59.782539 8.0572796
53.562092 60.027805 8.0706148
52.885674 59.794376 8.1161957
53.605904 60.042927 8.146244
53.267906 59.926285 8.1806812
53.243835 59.917976 8.2145653
53.285908 59.932495 8.2501755
53.312489 59.941669 8.2860394
53.324585 59.945843 8.3216829
53.292751 59.93486 8.354578
53.299419 59.93716 8.3898363
53.277481 59.929588 8.4571667
53.613449 60.005089 7.9932532
53.532536 59.978146 8.034277
53.54641 59.943459 7.9596
53.530338 59.938297 7.9976606
53.177891 59.688396 9.0917063
53.149414 59.680595 9.1147356
53.139637 59.677914 9.1436224
53.129936 59.675255 9.1723175
53.194931 59.659359 9.0607948
53.152134 59.648125 9.0796041
53.12355 59.640625 9.1022186
53.109627 59.636967 9.1292667
53.112427 59.637703 9.1619768
53.119194 59.639481 9.1962118
53.177219 59.621475 9.0516539
53.136948 59.611362 9.0710068
53.122269 59.607677 9.0979986
53.108379 59.604191 9.1249371
53.107746 59.604034 9.1562834
53.114491 59.605724 9.190321
53.14854 59.614273 9.2348289
53.181725 59.589581 9.0494728
53.151886 59.582428 9.0721493
53.122585 59.575405 9.0943432
53.116032 59.573833 9.1236973
53.110332 59.572468 9.1532087
53.112141 59.572899 9.1853371
53.131908 59.577641 9.224267
53.201477 59.561329 9.0520182
53.166847 59.553417 9.0732908
53.137886 59.546799 9.0956745
53.132099 59.545479 9.1253443
53.126305 59.544155 9.1548824
53.12957 59.544903 9.1875916
53.14957 59.549469 9.2266483
53.189903 59.526085 9.0770016
53.169205 59.521587 9.1022749
53.148727 59.517139 9.1271687
53.150391 59.517498 9.1593971
53.161827 59.519985 9.1952038
53.192715 59.49432 9.1382608
53.204361 59.496723 9.1743402
53.063522 60.185642 8.6126108
53.063072 60.18531 8.5768089
53.055496 60.179714 8.5420504
53.048637 60.174652 8.5069904
53.040272 60.168472 8.4719296
53.035561 60.164997 8.4362497
53.011696 60.147377 8.4022474
53.009476 60.145737 8.3658543
52.996277 60.13599 8.3301411
53.146774 60.203655 8.6371126
53.16098 60.214382 8.5995436
53.156071 60.210674 8.5654736
53.149273 60.205544 8.5315533
53.08971 60.160561 8.5046139
53.083694 60.156017 8.469512
53.070526 60.146072 8.4350233
53.049583 60.130257 8.4009171
53.037601 60.121208 8.3655109
53.025375 60.111973 8.3297968
53.00436 60.096104 8.2942276
52.968746 60.069206 8.2586823
53.284168 60.265537 8.9165936
53.291115 60.270901 8.8810072
53.280846 60.26297 8.850563
53.266312 60.251743 8.8210068
53.217793 60.214268 8.6622868
53.225475 60.220203 8.6264105
53.227474 60.221748 8.5917568
53.22324 60.218479 8.5581827
53.216278 60.2131 8.5249043
53.207626 60.206417 8.4916658
53.198536 60.199394 8.4582443
53.189018 60.192047 8.4246206
53.177135 60.182869 8.3909636
53.177452 60.183113 8.3559771
53.155357 60.16605 8.3225355
53.168629 60.1763 8.2865496
53.16597 60.174244 8.2515831
52.963169 60.017612 8.2220268
53.190216 60.19297 8.1810246
53.210285 60.208469 8.146244
53.222542 60.217937 8.1119061
53.22081 60.216602 8.0775213
53.21925 60.215397 8.0430956
53.18605 60.189754 8.0068932
53.305161 60.239475 8.9503822
53.319073 60.250462 8.9124537
53.323349 60.253838 8.8778391
53.316853 60.248711 8.8464708
53.302513 60.237385 8.817091
53.282398 60.2215 8.7888317
53.255283 60.200085 8.7617588
53.249634 60.195618 8.6946182
53.276173 60.216583 8.6548414
53.281837 60.221054 8.6198387
53.278793 60.218651 8.5865574
53.273445 60.214424 8.5535746
53.267368 60.209629 8.5205545
53.260681 60.204346 8.4874506
53.257286 60.201664 8.4537525
53.254921 60.199795 8.4198465
53.247482 60.19392 8.3863659
53.247902 60.194252 8.3520279
53.249474 60.195496 8.3176222
53.255493 60.200249 8.2830133
53.247578 60.193996 8.2491493
53.238503 60.186829 8.2150984
53.255867 60.200542 8.1804314
53.269897 60.211624 8.146244
53.280735 60.220184 8.112401
53.277168 60.217365 8.0784588
53.263649 60.206688 8.0440054
53.245605 60.192436 8.0089283
53.227634 60.178246 7.9733567
53.208885 60.163437 7.9372239
53.200626 60.156914 7.901588
53.190041 60.148556 7.8654661
53.18232 60.142456 7.8294082
53.327156 60.214195 8.950346
53.343323 60.227249 8.9116554
53.344288 60.228031 8.8780794
53.338821 60.223614 8.8464155
53.32666 60.213795 8.8164673
53.311817 60.201805 8.78689
53.293522 60.187031 8.7577667
53.286446 60.181316 8.7254715
53.302925 60.194626 8.6877203
53.328732 60.215466 8.6484776
53.334217 60.219894 8.613925
53.335587 60.221001 8.5802708
53.330673 60.217033 8.5477066
53.32383 60.21151 8.5153008
53.315376 60.204681 8.4829302
53.313736 60.203354 8.4494677
53.308571 60.199184 8.4163523
53.301731 60.193661 8.3832569
53.300152 60.192387 8.3495302
53.302307 60.19413 8.3154984
53.307583 60.198387 8.281353
53.301529 60.193497 8.2478294
53.293621 60.187115 8.2141886
53.308167 60.198856 8.1800137
53.320194 60.208572 8.146244
53.330288 60.216721 8.1127834
53.329296 60.215923 8.0792952
53.328564 60.215332 8.0457907
53.309334 60.199802 8.0112324
53.253387 60.154621 7.9735775
53.248142 60.150387 7.9386053
53.234184 60.139114 7.9026351
53.230968 60.136517 7.867475
53.229206 60.135094 7.832408
53.195469 60.107849 7.7928305
53.187511 60.101421 7.756268
53.172825 60.089561 7.7183571
53.172283 60.089127 7.6826019
53.170654 60.087811 7.6466188
53.166237 60.084244 7.6100068
53.178307 60.09399 7.5769515
53.196758 60.108891 7.5457468
53.202114 60.113216 7.5117688
53.199741 60.111301 7.4758911
53.182793 60.097614 7.4358807
53.193703 60.106422 7.226728
53.182335 60.097244 7.1870813
53.338184 60.179863 8.9540148
53.352871 60.191986 8.9156027
53.354446 60.193287 8.8816643
53.345207 60.185658 8.8509684
53.335457 60.177608 8.8201551
53.32766 60.171169 8.7885456
53.31963 60.164539 8.7567749
53.315342 60.160999 8.7238827
53.353664 60.192642 8.6812716
53.367928 60.204418 8.6448202
53.376099 60.211166 8.609971
53.377289 60.212147 8.5766296
53.374187 60.209587 8.5440474
53.367435 60.20401 8.5119429
53.358315 60.19648 8.4799814
53.354671 60.193474 8.4470692
53.349518 60.189217 8.4142246
53.346035 60.18634 8.3810701
53.34631 60.186569 8.3475008
53.348228 60.188152 8.3138227
53.35096 60.190407 8.2801533
53.345264 60.185707 8.2469168
53.34267 60.183563 8.2134323
53.350517 60.190044 8.1797276
53.359161 60.197182 8.146244
53.367802 60.204315 8.1130037
53.369232 60.205494 8.0798044
53.366039 60.202858 8.0464487
53.354435 60.193279 8.0125313
53.344997 60.185486 7.9784379
53.338623 60.180222 7.9443383
53.256714 60.112598 7.9026151
53.253849 60.110229 7.8674884
53.239685 60.098537 7.8308492
53.232517 60.092617 7.794796
53.222103 60.084023 7.758039
53.213318 60.076767 7.7212629
53.214207 60.077499 7.6860108
53.215481 60.078552 7.6508589
53.216694 60.079556 7.6157312
53.22253 60.084373 7.5816774
53.230991 60.091358 7.5484171
53.237976 60.097126 7.5150208
53.236057 60.095543 7.4794402
53.23019 60.090698 7.4426928
53.224468 60.085972 7.4058237
53.220871 60.083004 7.3694515
53.218304 60.080883 7.3333116
53.215435 60.078514 7.2969975
53.219627 60.081974 7.2630873
53.230503 60.090958 7.2317424
53.236469 60.095879 7.1988363
53.337349 60.135113 8.9617987
53.347092 60.143337 8.924633
53.347084 60.14333 8.8907928
53.345016 60.141586 8.8575668
53.339958 60.137318 8.8251305
53.329216 60.12825 8.7940865
53.315117 60.116352 8.7635956
53.333115 60.131538 8.7249517
53.393555 60.182556 8.6771688
53.413815 60.199654 8.6396675
53.417168 60.202488 8.6061058
53.411316 60.197548 8.5743399
53.407951 60.194706 8.5419827
53.401917 60.189613 8.5099478
53.396931 60.185406 8.4775925
53.388115 60.177967 8.4455843
53.386772 60.17683 8.4124775
53.383965 60.174461 8.3794775
53.377804 60.169262 8.3466835
53.377632 60.169113 8.3132896
53.3797 60.17086 8.2797623
53.37886 60.170151 8.246419
53.374035 60.166077 8.2131643
53.381218 60.172142 8.1796026
53.386879 60.176922 8.146244
53.391815 60.181087 8.1130371
53.393982 60.182919 8.0798912
53.391327 60.180676 8.0466013
53.385235 60.175533 8.0130396
53.382771 60.173454 7.9795637
53.383686 60.174225 7.9463062
53.386234 60.176376 7.9132366
53.384899 60.175247 7.8797979
53.386196 60.176346 7.8466582
53.349129 60.145058 7.8081036
53.240906 60.053711 7.7573738
53.233501 60.047462 7.7207599
53.235386 60.049053 7.6856508
53.234234 60.04808 7.649991
53.232849 60.046909 7.6142492
53.232708 60.046791 7.5787506
53.242661 60.055191 7.5456872
53.251396 60.062569 7.5125947
53.253601 60.064426 7.4779863
53.250549 60.061852 7.4419479
53.246723 60.05862 7.405592
53.242878 60.055374 7.3691201
53.239128 60.052208 7.3325706
53.235455 60.049107 7.2959404
53.234474 60.048283 7.2601633
53.237541 60.050873 7.2258539
53.233318 60.047306 7.1888332
53.224266 60.039665 7.1497722
53.335896 60.088978 8.9012985
53.339855 60.092396 8.8657846
53.337048 60.089973 8.8323269
53.329216 60.083218 8.8001566
53.313564 60.06971 8.7697811
53.431343 60.171333 8.6734715
53.449734 60.187202 8.6365623
53.458141 60.194454 8.6021872
53.453529 60.190475 8.5704794
53.44614 60.184101 8.5391178
53.434772 60.174294 8.508172
53.422672 60.163853 8.477005
53.41185 60.15451 8.4453259
53.410416 60.153275 8.4122591
53.405197 60.148773 8.3795309
53.40276 60.146671 8.3464146
53.403744 60.147522 8.3129816
53.403172 60.147026 8.2796669
53.407219 60.150517 8.2461376
53.401833 60.14587 8.2129936
53.403545 60.147346 8.179594
53.409103 60.152142 8.146244
53.411858 60.154522 8.1130133
53.414246 60.156582 8.0798502
53.411888 60.154545 8.0465517
53.409767 60.152718 8.0131998
53.412228 60.154839 7.9801149
53.415344 60.157528 7.9471569
53.418697 60.160423 7.9143128
53.421928 60.163212 7.8815503
53.42345 60.164524 7.84866
53.404968 60.148575 7.8129439
53.403584 60.147381 7.7793956
53.401009 60.145161 7.7456031
53.401592 60.145664 7.7123246
53.407066 60.150387 7.6800451
53.412502 60.155079 7.6479154
53.417923 60.159756 7.6159372
53.425762 60.166515 7.5847039
53.43536 60.174797 7.5541501
53.4422 60.180702 7.5231204
53.44532 60.183392 7.491219
53.443882 60.182152 7.4580345
53.438126 60.177185 7.4234467
53.418633 60.160366 7.3841615
53.211029 59.981239 7.2073426
53.221207 59.990021 7.1751728
53.466549 60.20171 7.2377348
53.461292 60.197174 7.2031007
53.463974 60.156178 8.6708994
53.4828 60.172779 8.6340199
53.492683 60.181496 8.5994978
53.49992 60.187881 8.5657606
53.510826 60.197498 8.5315952
53.515179 60.20134 8.4987898
53.511993 60.198528 8.4672012
53.508797 60.195709 8.4355221
53.42712 60.123672 8.4128399
53.4235 60.120483 8.3798828
53.420292 60.117653 8.3467846
53.420341 60.117695 8.3133574
53.421329 60.118568 8.2798777
53.428875 60.125225 8.2461414
53.420044 60.117435 8.2130976
53.419178 60.116673 8.1796837
53.429016 60.125347 8.146244
53.430782 60.126904 8.1129723
53.433117 60.128963 8.0797691
53.431862 60.127857 8.0464764
53.434017 60.129757 8.0133457
53.439671 60.134743 7.9805298
53.445473 60.139858 7.9478912
53.446625 60.140877 7.9149489
53.446819 60.141048 7.8819299
53.436028 60.131531 7.8474841
53.43676 60.132175 7.8143945
53.4375 60.132828 7.7813272
53.436157 60.131645 7.7479205
53.435886 60.131405 7.7146754
53.441837 60.136654 7.6826839
53.447403 60.141563 7.6507816
53.450874 60.144623 7.6185541
53.458412 60.151272 7.587429
53.469852 60.161362 7.557539
53.475319 60.166183 7.5263371
53.476833 60.167519 7.4941487
53.474903 60.165817 7.4609575
53.471634 60.162933 7.4272833
53.469261 60.160839 7.3938127
53.470215 60.161682 7.3614306
53.471725 60.163013 7.3292766
53.471172 60.162525 7.2963891
53.483562 60.173454 7.2685461
53.498013 60.186199 7.2418976
53.510536 60.197243 7.2148566
53.481697 60.128017 8.6717634
53.508118 60.151833 8.6331263
53.52182 60.164185 8.5978642
53.533203 60.174446 8.5634422
53.545593 60.185616 8.5291767
53.5504 60.189949 8.4964933
53.560719 60.199249 8.4631433
53.553013 60.192303 8.4324675
53.546692 60.186607 8.4014044
53.434292 60.085285 8.3810091
53.433781 60.084824 8.3475161
53.434261 60.085258 8.3139353
53.433277 60.08437 8.2804546
53.438118 60.088734 8.2466898
53.428654 60.0802 8.2134848
53.43227 60.083462 8.1798115
53.44009 60.090511 8.146244
53.442314 60.092518 8.1128235
53.447098 60.096828 8.0795422
53.448906 60.098461 8.0462713
53.452309 60.101528 8.0131464
53.455677 60.104561 7.9801173
53.461025 60.109383 7.947361
53.46476 60.112751 7.9145966
53.467674 60.115379 7.8818445
53.456867 60.105633 7.847373
53.457535 60.106239 7.8142624
53.457619 60.106312 7.7810779
53.4576 60.106297 7.7478781
53.458584 60.107185 7.7148676
53.462322 60.11055 7.6824493
53.464954 60.112926 7.6498985
53.469021 60.116589 7.6177597
53.479256 60.125816 7.5872731
53.487305 60.133072 7.5565095
53.492912 60.138126 7.5253038
53.494602 60.139652 7.4931173
53.4958 60.140728 7.4608278
53.493084 60.138283 7.4273157
53.492397 60.137665 7.3944068
53.494595 60.139645 7.3624887
53.497532 60.142292 7.330905
53.500469 60.144939 7.299408
53.50713 60.150944 7.2694664
53.519695 60.16227 7.2421346
53.523922 60.16608 7.211638
53.528389 60.170109 7.1813688
53.514351 60.113464 8.6364403
53.534 60.131569 8.5997009
