# .PCD v0.7 - Point Cloud Data file format
VERSION 0.7
FIELDS x y z
SIZE 4 4 4
TYPE F F F
COUNT 1 1 1
WIDTH 1589
HEIGHT 1
VIEWPOINT 0 0 0 1 0 0 0
POINTS 1589
DATA ascii
-5.1820297 7.4844007 62.28878
-5.168931 7.5092392 64.742317
-5.1568356 7.5328045 67.069931
-5.4938345 7.5647058 70.085968
-4.938097 7.5712318 70.941574
-4.1809907 7.5722055 71.326752
-3.3562007 7.5714154 71.563881
-2.6414433 7.57339 72.03154
-1.8522711 7.5734715 72.341034
-0.98595661 7.571722 72.499443
-0.087852418 7.5693107 72.604813
0.94038397 7.5640492 72.478882
2.0836773 7.5564489 72.166397
3.6089182 7.540844 71.21067
4.8765278 7.5313573 70.759666
-0.072472513 5.2933111 2.4467545
1.0298357 5.3226719 4.3149414
0.92383772 5.4450669 10.307175
-4.9797926 5.9993229 35.370811
-4.860456 6.0735984 39.077366
-4.7530665 6.1437988 42.578472
-4.5033202 6.1997194 45.430115
-4.218379 6.2498217 48.008434
-3.9458733 6.2977057 50.472683
-3.6852555 6.3435326 52.830963
-5.3333907 6.5029311 60.058025
-5.1818085 6.5470037 62.288216
-5.1692615 6.5967131 64.743118
-5.1568356 6.6438246 67.069931
-5.5020723 6.7080774 70.105019
-4.9518638 6.7214131 70.972473
-4.1984296 6.7235336 71.364777
-3.3707552 6.7217851 71.594742
-2.6601129 6.7259212 72.070038
-1.871367 6.7260842 72.379364
-1.008225 6.7227144 72.542953
-0.1125192 6.7179804 72.651764
0.91340452 6.7075381 72.528931
2.0502825 6.6925979 72.226791
3.5886812 6.6607847 71.246361
4.7974768 6.6443028 70.895729
0.079977095 3.7096276 1.8659706
1.1424084 3.7593045 3.904129
2.6495781 3.7527671 4.2649994
-5.1810188 5.6095438 62.286224
-5.1683888 5.6841021 64.740967
-5.1569395 5.7548532 67.070183
-5.2748537 5.8325973 69.579758
-4.7990584 5.8590126 70.629471
-4.0201502 5.8605032 70.975975
-3.3852925 5.8728924 71.625565
-2.6787663 5.8793764 72.108498
-1.8904505 5.8796215 72.417648
-1.0303473 5.874752 72.586174
-0.13525099 5.86766 72.69503
0.88657957 5.8522406 72.578674
2.0169487 5.8302269 72.287079
3.6620197 5.7754951 71.116997
-5.1816959 4.6722102 62.287933
-5.1690421 4.7716169 64.742584
-5.1569395 4.8658762 67.070183
-4.9740143 4.9366531 68.884308
-4.5521979 4.9784446 70.075348
-4.0261974 5.0073719 70.989166
-3.3889532 5.0236335 71.633324
-2.6909328 5.033114 72.133583
-1.9018841 5.0333424 72.440598
-1.0487633 5.0274868 72.622162
-0.13690847 5.0164385 72.698189
0.86688811 4.9975138 72.615204
2.0041113 4.967515 72.310287
3.7030582 4.8898253 71.044609
-4.2432375 4.0764484 69.381851
-3.7287073 4.1150975 70.340378
-3.1358385 4.141973 71.096695
-2.4255905 4.1530519 71.586411
-1.6992846 4.161684 72.034012
-0.8209433 4.1519203 72.177017
0.13082033 4.1340685 72.188599
1.169673 4.1070933 72.053574
2.7104864 4.0254679 71.032822
-4.4038191 3.2330532 69.742294
-4.1276236 3.3159876 71.210365
-3.5309639 3.3461847 71.934395
-2.7664814 3.3500171 72.289375
-1.871367 3.3346844 72.379364
-0.92467588 3.3126955 72.3797
0.030236304 3.2905164 72.380051
0.99335009 3.2681603 72.38063
1.965024 3.2455921 72.380981
3.1425781 3.1970515 72.033264
-3.0855007 2.4211049 70.989975
-2.3047605 2.4245882 71.337242
-1.273838 2.3854756 71.180214
-0.1934728 2.3398943 70.950974
0.90545565 2.2932739 70.714203
2.0246019 2.2454185 70.467743
-2.472492 15.047387 2.2250252
-3.3929329 14.144467 6.1326294
-1.9631624 14.066352 5.4270439
-0.83074379 13.594621 2.5774498
-4.5667138 12.955228 8.2040787
-2.7758253 13.322482 9.8018341
-1.5155969 13.069565 8.2323837
-0.58844471 12.323937 4.1300049
-3.7093925 12.425776 13.026695
-2.243402 12.468145 12.961884
-1.1303585 12.04327 10.636597
-0.87699652 10.312187 1.9681473
2.2890072 10.444202 2.0299416
-3.0646558 11.73352 16.648073
-1.7748082 11.592196 15.73831
-0.81909013 10.95764 12.563217
-0.8812542 8.6735477 1.7933426
1.2603884 9.6487999 5.9938889
3.060288 10.185591 8.1890678
4.2145772 9.5501328 4.9723549
-3.5443316 11.405687 21.785635
-2.2135985 11.384157 21.438713
-1.3120935 10.762547 18.481253
-0.63057971 9.7237463 13.694159
2.5004621 10.202038 15.25016
3.7670255 9.9387751 13.831177
4.696486 8.9177284 9.0770531
-4.3387232 10.677434 24.830601
-2.4506402 11.408855 27.598906
-1.1259875 11.460547 27.57044
0.16829038 11.474787 27.387747
1.4413152 11.45778 27.075615
2.6862381 11.390657 26.554747
3.7478855 10.976744 24.5874
4.4530435 9.7742624 19.31955
4.9943929 7.9680758 11.504402
-3.5100579 11.899655 35.289181
-1.9658394 12.325418 36.733398
-0.65702868 12.483775 37.132381
0.53877842 12.499866 36.972961
1.6661085 12.41317 36.407635
2.7111254 12.178643 35.255459
3.7215004 11.846185 33.710785
4.3109307 10.648742 28.720982
5.1730156 9.8024845 25.110764
4.1559167 4.4391007 3.4493179
-13.212735 10.645368 37.182308
-11.727242 10.895486 37.876911
-10.888156 10.547256 36.362877
-3.7483573 11.807575 39.927891
-2.1866477 12.309056 41.587082
-0.89035439 12.51298 42.137375
0.28363287 12.568376 42.13224
1.3627769 12.488264 41.617222
2.3793776 12.296991 40.681053
3.3635545 12.022137 39.425476
4.3092265 11.63284 37.731453
5.1937685 11.054386 35.312263
5.4929686 9.080946 27.570448
-11.819963 10.689607 41.855431
-10.454021 10.883423 42.321121
-9.6402769 10.54163 40.893589
-4.0900192 11.578413 43.715218
-2.5547557 12.088158 45.327057
-1.2701228 12.321949 45.957108
-0.11708355 12.398844 46.026894
0.95961285 12.372271 45.725243
1.9894811 12.268795 45.145657
2.9855244 12.094568 44.308624
3.9257579 11.794559 43.013088
4.7949715 11.309625 41.041382
5.5981536 10.602921 38.255196
6.2313008 9.3730316 33.550194
11.499776 10.839006 38.025166
12.657183 10.836838 37.799328
13.763404 10.566334 36.582581
14.624661 8.5264149 28.814308
-12.888984 9.5859947 42.512421
-10.5825 10.686192 46.012211
-9.2574072 10.891213 46.49596
-8.4263649 10.599039 45.294949
-1.7139776 14.55637 58.181435
-0.70204163 14.609527 58.181114
0.3056426 14.662548 58.181103
1.309041 14.715344 58.181099
2.1682882 14.564812 57.481216
1.5679848 12.149673 48.958889
2.5283532 11.981739 48.177761
3.45226 11.727135 47.093609
4.344882 11.37656 45.672203
5.1990709 10.8928 43.781822
5.907371 10.00533 40.475437
10.761559 10.902573 42.770245
11.837772 10.766656 42.081802
12.882174 10.438787 40.713024
13.922146 9.9461117 38.755821
14.969665 9.2374973 36.025105
-11.638672 9.5988007 46.558208
-9.8286963 10.28926 48.588341
-8.3302526 10.709757 49.750179
-7.0815907 10.894197 50.148525
-3.7748671 13.415113 58.181843
-2.7503767 13.471527 58.182793
-1.730792 13.527115 58.181828
-0.71550179 13.582561 58.181183
0.29559708 13.637962 58.181175
1.3024409 13.693225 58.181492
2.304903 13.74815 58.181473
3.3029835 13.802654 58.180836
4.0475869 13.431828 56.767536
3.8875055 11.36167 49.689865
4.7171297 10.923355 48.028851
5.4828811 10.280666 45.678146
5.9600244 8.8655005 40.729477
8.9869099 10.893253 47.122192
10.035074 10.821745 46.67947
11.054853 10.63217 45.836716
12.052751 10.297112 44.498569
13.036227 9.7742424 42.518291
14.020813 9.0310955 39.781498
-11.546162 8.5403023 46.98304
-9.3008537 9.7110434 50.425735
-7.6379147 10.344482 52.204124
-6.2400312 10.731624 53.21925
-3.7988043 12.374026 58.182243
-2.7708788 12.432796 58.182877
-1.7478054 12.490804 58.181904
-0.7289741 12.548764 58.181576
0.28555655 12.606576 58.181564
1.2957942 12.66424 58.181873
2.3016357 12.721557 58.181866
3.3030572 12.778431 58.181229
4.3003902 12.83536 58.181534
4.255928 10.924867 51.882542
5.0068965 10.35191 49.849678
6.2877574 10.852394 51.261013
7.3196363 10.844876 51.042057
8.3024759 10.707714 50.40432
9.2761307 10.515354 49.586071
10.241524 10.251342 48.532825
11.219346 9.9628582 47.396454
12.199753 9.5972958 46.005123
13.126719 8.8347349 43.313183
-9.0551004 8.865016 51.345505
-7.1376357 9.8152418 54.004951
-4.8587179 11.26454 58.182648
-3.8229122 11.32585 58.182644
-2.7915189 11.386999 58.182953
-1.7649324 11.44746 58.181984
-0.74253631 11.507975 58.181973
0.27537441 11.568123 58.181641
1.2890429 11.628223 58.181953
2.2983487 11.688065 58.182262
3.3031301 11.747336 58.181618
4.3037448 11.806564 58.18161
4.7902493 10.861012 55.08474
5.7442393 10.764709 54.599167
6.6660519 10.579449 53.83691
7.5832953 10.350604 52.936985
8.5050182 10.090411 51.936577
9.4257069 9.772295 50.752258
10.361428 9.4298754 49.487869
11.302529 9.0166616 47.997452
12.251076 8.5090475 46.205597
-6.8708353 9.0508432 55.015499
-5.3029017 9.7035379 56.720016
-1.7681162 12.890362 65.817719
-0.61018395 13.23261 66.648331
0.34423423 13.326406 66.756104
1.1338553 13.191244 66.193481
1.8933167 12.996365 65.453598
2.5517251 12.618504 64.172157
2.2949655 10.647491 58.182335
3.303206 10.709304 58.182011
4.3071795 10.770959 58.182003
5.0359793 10.278373 56.535866
5.9738083 10.17182 56.033005
6.8545928 9.9127197 55.073551
7.7290969 9.5921516 53.926975
8.6077042 9.2218046 52.627129
9.4988899 8.8123741 51.205189
10.38787 8.2982855 49.463047
11.265336 7.6004052 47.16003
-2.1196322 12.638613 67.994415
-1.0313315 12.913565 68.602379
-0.094461441 13.006694 68.701393
0.78009987 13.01963 68.575096
1.6269891 12.992421 68.335342
2.3526073 12.771555 67.545975
3.0727015 12.517495 66.659531
3.6281438 11.945295 64.863693
3.3032806 9.6642618 58.182407
4.3106356 9.7283764 58.1824
5.1373949 9.4184246 57.11068
6.084528 9.3365231 56.690399
6.9433489 9.0238895 55.604721
7.7731829 8.5786781 54.132622
8.596941 8.0299606 52.355713
-2.8411603 11.918755 68.778854
-1.7051969 12.258615 69.5354
-0.71240139 12.434416 69.85051
0.20129013 12.514425 69.907028
1.0591011 12.519472 69.760048
1.8649101 12.444475 69.394341
2.642626 12.315971 68.881157
3.3764384 12.098053 68.120964
4.019865 11.690802 66.83725
4.5021362 10.923032 64.554619
4.1857514 8.4151649 57.454453
5.1524296 8.3758459 57.160332
6.0922208 8.2671394 56.673172
6.8744321 7.7385273 55.016884
-3.8245811 10.873756 68.68985
-2.5100079 11.432633 69.985016
-1.4717073 11.668171 70.439751
-0.51246834 11.813697 70.660934
0.38391733 11.880715 70.677254
1.2344832 11.884133 70.526665
2.0437231 11.821741 70.202209
2.8395321 11.730259 69.800003
3.56707 11.507523 69.048378
4.2604074 11.194763 68.054726
4.7863541 10.509808 66.065308
4.1391711 7.2428799 57.170422
-3.4873147 10.386539 69.876968
-2.321178 10.781254 70.7117
-1.309195 10.995802 71.094276
-0.38655138 11.100214 71.199532
0.50009775 11.159862 71.192017
1.3582103 11.18018 71.084831
2.181396 11.144767 70.835388
2.9547768 11.019051 70.354149
3.7119832 10.84987 69.759872
4.4030771 10.532712 68.78286
4.9920936 9.9661045 67.158875
5.2176409 8.5268478 63.272781
5.324975 6.6073599 58.126427
-3.3929286 9.6029873 70.281349
-2.2230554 10.017609 71.133568
-1.2425313 10.196985 71.413002
-0.30522728 10.32765 71.574593
0.58018351 10.389571 71.568161
1.4259276 10.392874 71.41758
2.2535532 10.365591 71.191315
3.0431867 10.267269 70.788467
3.7944577 10.085483 70.176979
4.4866076 9.7640324 69.215408
5.0734091 9.1786528 67.59108
5.2170763 7.510962 63.250992
-4.45154 8.4470901 69.959656
-3.3647943 8.733387 70.472809
-2.205483 9.1447153 71.285713
-1.2038412 9.3588219 71.633926
-0.28590584 9.4633245 71.723175
0.60265207 9.5302887 71.723846
1.4648595 9.5594378 71.634697
2.2870245 9.5210466 71.383789
3.0979004 9.4577551 71.072594
3.829216 9.2320709 70.369316
4.5332437 8.9235916 69.463646
5.1129522 8.3038807 67.801247
5.2165051 6.4875445 63.22905
-4.3368449 7.6847396 70.421227
-3.386868 7.7921481 70.503624
-2.2168798 8.2272911 71.341377
-1.2125025 8.4483824 71.689911
-0.28743935 8.5636072 71.795998
0.60631657 8.6376743 71.807915
1.4662719 8.6604481 71.701492
2.293864 8.6268282 71.46405
3.1060967 8.560379 71.149696
3.8413248 8.3315735 70.455124
4.6913204 8.3205109 70.268311
5.4575152 8.1183586 69.632706
5.2143655 5.452724 63.198029
-4.358346 6.7392578 70.463593
-3.4089961 6.8451581 70.534866
-2.2316256 7.2999215 71.386414
-1.2234321 7.5295019 71.738449
-0.29564142 7.6485877 71.844894
0.60101366 7.7256889 71.858124
1.4633856 7.7492013 71.751358
2.2932949 7.7144885 71.513313
3.1077559 7.6457748 71.197945
3.8447223 7.4087796 70.500084
4.7249637 7.4584007 70.451561
5.4875708 7.2398701 69.792442
-3.4315028 5.8919201 70.565567
-2.2463112 6.3673701 71.432182
-1.2343612 6.6054888 71.787498
-0.30396366 6.7282653 71.893822
0.59562397 6.8084679 71.908371
1.4604864 6.8328338 71.801506
2.2927229 6.7970161 71.562851
3.109473 6.7261152 71.246704
3.8481421 6.4806967 70.545296
4.731276 6.5327721 70.498489
5.4720039 6.2493896 69.709702
-3.4921265 4.8750906 70.475311
-2.2611556 5.4292707 71.477982
-1.2454219 5.6760869 71.836594
-0.31233072 5.8026996 71.943039
0.59020472 5.8860674 71.958908
1.4575651 5.9113064 71.851944
2.2922044 5.8744836 71.6129
3.1111541 5.8011479 71.295486
3.8515751 5.547277 70.590775
4.5525756 5.1716857 69.622368
-3.7062874 3.610199 69.897003
-2.6130331 3.9397464 70.40506
-1.3078055 4.6548123 71.708183
-0.33501768 4.8466959 71.940742
0.57493877 4.9403658 71.972412
1.4518065 4.9791222 71.891388
2.2845564 4.9322863 71.63327
3.0994065 4.8422332 71.284935
3.7896762 4.4610214 70.329437
-3.3595672 3.2203321 71.105026
-2.2884264 3.5410094 71.579269
-1.3875299 3.5936255 71.520653
-0.49826336 3.6298118 71.429604
0.38926744 3.6660457 71.338982
1.2750049 3.7022085 71.248543
2.1590114 3.7384152 71.158524
3.0227571 3.7340107 70.986748
3.8386936 3.6183152 70.589432
4.5296326 3.1818395 69.539658
1.1301451 2.4668856 70.734657
2.2752786 3.042603 71.700294
3.1357386 3.0384936 71.529984
-0.75759745 14.640274 58.477612
0.7332921 14.577006 58.473759
2.1951919 14.514919 58.470985
0.54614544 13.138525 68.67231
1.1606607 13.145424 67.974274
1.5376949 13.169073 67.073685
-2.2791786 13.657656 58.481808
-0.75759745 13.603859 58.477612
0.7332921 13.551136 58.473759
2.1951919 13.499397 58.470985
3.626143 13.448826 58.466522
4.2757621 13.457449 57.696224
0.019488335 12.146787 70.59816
1.3800077 12.111255 70.504684
2.2963657 12.099314 70.077118
2.9232426 12.103145 69.419754
3.4056559 12.115136 68.638878
3.5518227 12.146393 67.56234
3.5503674 12.186761 66.336098
3.4104548 12.236011 64.95929
3.2668381 12.286565 63.545979
-0.75759745 12.567444 58.477612
0.7332921 12.525265 58.473759
2.1951919 12.483874 58.470985
3.626143 12.443417 58.466522
5.0300832 12.403683 58.463387
4.8595533 12.461496 56.852539
-3.2682629 14.381161 5.4937172
-1.862009 14.357994 4.9847946
-1.2426567 14.40065 3.1533699
-0.4137373 11.204705 71.411049
1.0883036 11.172522 71.419876
2.1995564 11.155566 71.148491
2.9319391 11.153822 70.587265
3.6327791 11.153352 70.001648
4.0589647 11.164392 69.186295
4.3785191 11.18019 68.270081
4.516778 11.2041 67.181427
4.4764071 11.236271 65.911934
4.4124336 11.270188 64.592049
-0.75759745 11.531029 58.477612
0.7332921 11.499395 58.473759
2.1951919 11.468351 58.470985
3.626143 11.438008 58.466522
5.0300832 11.408208 58.463387
5.1666813 11.43716 57.17173
3.0850351 11.572124 53.495987
3.1603372 11.60671 52.02874
3.3085217 11.638602 50.607899
3.4596977 11.671139 49.158318
3.6139715 11.704341 47.679123
3.7708831 11.738256 46.168724
3.9307859 11.772893 44.626461
4.085125 11.808723 43.040569
3.9406381 11.861197 41.037804
3.791595 11.915323 38.972008
3.6148005 11.97242 36.809704
3.4303126 12.031511 34.573101
-2.1672812 12.691162 12.65863
-1.5159883 12.716961 11.050705
-1.0809402 12.756853 9.0579529
-0.782341 12.806524 6.7865219
-0.44123268 12.855089 4.5232544
-1.9582043 10.299209 71.396973
0.18664932 10.261118 71.862793
1.5028172 10.244488 71.738564
2.5419903 10.235023 71.417496
3.3185081 10.232556 70.897537
3.9687691 10.233531 70.277191
4.4375324 10.239602 69.50351
4.8519297 10.24734 68.675369
4.993474 10.263041 67.598396
5.0269852 10.282206 66.403984
4.9701366 10.304434 65.101295
4.9121428 10.327191 63.767323
0.8236208 10.470827 58.55986
2.1951919 10.452829 58.470985
3.626143 10.4326 58.466522
5.0300832 10.412733 58.463387
4.9687357 10.438225 56.966011
5.7204165 10.438595 56.294971
6.316442 10.443959 55.454449
6.8411899 10.451768 54.526833
7.3700094 10.459637 53.59203
7.9029374 10.467566 52.649948
8.4400253 10.475558 51.700504
8.9813309 10.483613 50.743618
9.5271339 10.491722 49.779488
10.077017 10.499905 48.807446
10.631257 10.508152 47.827682
11.18623 10.516598 46.835224
11.677639 10.527594 45.742523
11.995646 10.545307 44.390869
12.319045 10.563322 43.016285
12.647978 10.581644 41.618179
12.982357 10.600292 40.195595
13.322789 10.619257 38.748585
13.669207 10.638554 37.276165
14.021761 10.658192 35.777657
-0.49718094 11.287907 10.009178
-0.44480896 11.330894 7.3497849
-0.49560165 11.37962 4.4303055
-0.33798218 11.420974 1.7793961
-1.3926544 9.3530607 71.8134
0.41755772 9.3383846 72.03653
1.7128592 9.3303175 71.900047
2.6995764 9.3262682 71.54129
3.5033464 9.3246384 71.045898
4.1230831 9.3255224 70.403748
4.5965977 9.3284683 69.63678
5.0008812 9.3324566 68.802887
5.1670609 9.3399324 67.750229
5.242403 9.3488836 66.596504
5.2241139 9.3593998 65.333206
5.2054052 9.3701572 64.040924
1.164659 9.4412136 58.884956
2.1951919 9.4373064 58.470985
3.626143 9.4271917 58.466522
4.5227447 9.4250994 57.947414
5.3602624 9.4238815 57.372917
6.2864227 9.4212313 56.896118
6.8878927 9.4237175 56.074711
7.4133587 9.4274979 55.161564
7.9428101 9.4313068 54.241508
8.4765186 9.4351406 53.314724
9.0140619 9.4390068 52.3806
9.5557251 9.4429035 51.439316
10.101554 9.4468298 50.490795
10.651598 9.4507866 49.534954
11.206127 9.4547701 48.571995
11.764748 9.4587879 47.601254
12.31039 9.4631538 46.599457
12.71199 9.4703045 45.383244
13.059212 9.4786777 44.065281
13.410892 9.4872065 42.724457
13.768293 9.4958744 41.36182
14.131557 9.5046844 39.976822
14.500837 9.5136404 38.568916
14.876268 9.5227451 37.137531
15.258012 9.5320034 35.682079
4.2278309 9.7790823 15.147308
4.1941919 9.8015251 12.446583
4.159771 9.8247156 9.6556358
4.1238213 9.8487072 6.7686424
4.4459229 9.865551 4.4419632
4.4944878 9.8891525 1.5295105
-1.2086163 8.4217834 71.948914
0.5084343 8.4217834 72.104912
1.7752266 8.4217834 71.947998
2.759387 8.4217834 71.588272
3.5634604 8.4217834 71.094147
4.3391018 8.4217834 70.580894
5.1528206 8.4217834 70.102844
5.4880695 8.4217834 69.219978
5.2560577 8.4217834 67.828079
5.3483458 8.4217834 66.691177
5.3440003 8.4217834 65.44268
5.3395576 8.4217834 64.166084
5.334774 8.4217834 62.860229
5.3303652 8.4217834 61.524761
3.3360872 8.4217834 58.17783
4.3162284 8.4217834 57.737377
5.4051981 8.4217834 57.419617
6.3081551 8.4217834 56.919201
6.9108973 8.4217834 56.099682
7.4367304 8.4217834 55.187489
7.9663072 8.4217834 54.268143
8.5001335 8.4217834 53.342087
9.0380182 8.4217834 52.408978
9.579792 8.4217834 51.46846
10.125949 8.4217834 50.521008
10.676317 8.4217834 49.56625
11.230933 8.4217834 48.604115
11.789862 8.4217834 47.634521
12.338755 8.4217834 46.637863
12.74237 8.4217834 45.425331
13.091673 8.4217834 44.11129
13.446346 8.4217834 42.775867
13.806973 8.4217834 41.419205
14.173249 8.4217834 40.040131
14.545756 8.4217834 38.638752
14.924429 8.4217834 37.214184
15.309198 8.4217834 35.76548
14.228496 8.4217834 31.836056
5.1328964 8.4217834 14.051111
5.12395 8.4217834 11.344063
5.1150494 8.4217834 8.547287
5.1054993 8.4217834 5.6549835
5.3087654 8.4217834 3.064682
-1.1279755 7.4939866 72.008293
0.56500149 7.5071406 72.147461
1.8305159 7.5148273 71.990494
2.8008757 7.518672 71.620865
3.5902147 7.5201178 71.115623
4.6063595 7.5247316 70.800064
5.3651695 7.5258451 70.280777
5.7697153 7.5219755 69.46109
5.2627439 7.5050011 67.833923
5.3481207 7.4962101 66.690979
5.3437686 7.4859142 65.442474
5.339097 7.4753833 64.165657
5.335011 7.4646235 62.860451
5.328949 7.4535875 61.523384
3.1706662 7.4094167 58.013199
4.1560507 7.4127998 57.574478
4.9160409 7.4127383 56.91124
5.8655281 7.4156742 56.449097
6.4714088 7.4131775 55.622646
6.9976125 7.4093275 54.700352
7.5278463 7.405448 53.770996
8.0619192 7.401535 52.834209
8.6003609 7.3975954 51.890465
9.1429796 7.3936253 50.939404
9.690052 7.3896284 49.981224
10.241161 7.3855963 49.015278
10.796833 7.3815365 48.042057
11.356863 7.3774447 47.061172
11.886832 7.3726921 46.025833
12.228796 7.3643312 44.71386
12.573041 7.3557758 43.376259
12.922901 7.3470807 42.016834
13.278518 7.338243 40.635052
13.640033 7.3292584 39.230358
14.007818 7.3201284 37.802536
14.381807 7.3108444 36.350647
13.791249 7.2815075 33.292
5.2443266 7.0856423 16.843594
5.2323933 7.0639963 14.221151
5.2200508 7.0416379 11.512344
5.2076378 7.018538 8.7134399
5.1948128 6.9946518 5.819252
5.4221802 6.9753757 3.2784958
-1.0477686 6.5682983 72.067352
0.62146568 6.5939975 72.189957
1.8831549 6.6092839 72.030975
2.842308 6.6166835 71.653404
3.6169548 6.619184 71.137085
4.6450787 6.6287513 70.831825
5.3903656 6.6306114 70.301888
5.7809887 6.6224866 69.470749
5.2694197 6.5884094 67.839767
5.3481207 6.5706363 66.690979
5.3435454 6.5500383 65.442261
5.3386354 6.5289698 64.165222
5.3336191 6.5074215 62.859119
5.329421 6.4854054 61.523842
5.4655409 6.4671674 60.297249
5.4613748 6.4441657 58.902016
3.587764 6.3621483 55.530777
3.6574113 6.339674 54.103905
3.7283375 6.3166952 52.645264
3.898551 6.2963715 51.262444
4.052423 6.2750072 49.830383
4.2091522 6.2531991 48.368927
4.3693738 6.2309532 46.877792
4.5326405 6.2082362 45.355419
4.6996007 6.1850529 43.801483
4.7998562 6.1589203 42.125717
4.8451061 6.1301336 40.336033
4.8917923 6.1006155 38.50061
4.9411435 6.0703788 36.619217
4.998179 6.0395803 34.697029
5.0567369 6.0079651 32.72382
3.2625723 5.8303566 23.470673
3.9274254 5.8177891 22.132748
4.3350077 5.7944555 20.362051
4.6823797 5.76793 18.449207
13.93394 6.1112328 31.344509
4.6523352 5.6816769 13.229675
4.6107626 5.6353035 10.445393
4.5611496 5.5870452 7.5533867
4.4917126 5.5362821 4.5261688
5.309124 5.5238585 3.0653458
-0.96749687 5.644722 72.126457
0.67783451 5.6823502 72.232368
1.9253111 5.70473 72.063385
2.8834639 5.715807 71.685745
3.6436653 5.7189817 71.158524
4.2657776 5.7164907 70.52076
4.9769125 5.7176809 69.955444
5.1161737 5.6946516 68.901596
5.2760983 5.6720095 67.845604
5.347888 5.6450529 66.690781
5.3430896 5.6141453 65.441849
5.3388662 5.5825729 64.165443
5.3345456 5.5502825 62.860008
5.3301229 5.5172482 61.524529
2.7661686 4.0520315 4.3324738
4.1726952 4.0722718 3.9394989
5.1447926 4.0637574 2.7555389
-1.082653 4.7129793 72.041664
0.62836361 4.7665777 72.195145
1.8752832 4.7963614 72.024918
2.8814182 4.813704 71.684135
3.6039257 4.8158712 71.126633
4.2335005 4.8129401 70.494293
4.668848 4.7990837 69.697319
5.050375 4.781888 68.845261
5.2203999 4.7522349 67.79689
2.0889635 4.5312185 63.778275
1.721653 4.4667549 62.135044
3.5912437 2.5707679 2.8701553
-1.8938198 3.7324529 71.444382
-0.5060873 3.7774482 71.341568
0.8418808 3.8206916 71.230423
2.1654472 3.8631682 71.121704
3.1865854 3.8858194 70.791649
3.6887474 3.8730421 70.047546
3.9901114 3.8459544 69.128601
4.2866831 3.8179488 68.191452
-1.6261311 2.8157029 71.641479
0.086215973 2.8957763 71.787224
1.7501059 2.9735751 71.92868
3.0916433 3.0267587 71.849281
3.898468 3.0371141 71.363037
4.4186878 3.0238929 70.646164
4.6597376 2.9869695 69.68969
-0.56078804 11.467075 71.040535
0.37569964 11.342268 71.142319
1.2654494 11.293367 71.083832
2.0747151 11.398443 70.697556
2.7965283 11.696404 69.898132
-2.5433774 10.932218 70.443008
-1.3702143 10.455338 71.315163
-0.37960613 10.241548 71.618744
0.52684605 10.155122 71.646271
1.3992885 10.122616 71.556618
2.2267971 10.173127 71.285179
3.0141969 10.310037 70.823273
3.7231297 10.629631 69.957481
-2.2777228 9.6124659 71.232704
-1.2457989 9.3488445 71.660599
-0.31299865 9.2231331 71.781731
0.5888468 9.1385231 71.811707
1.4526042 9.1135311 71.708168
2.2817831 9.1505671 71.464775
3.0938973 9.2250099 71.136337
3.8144741 9.4975128 70.357773
4.4746242 9.9347 69.201988
-3.4180593 9.0949364 70.403702
-2.2139015 8.6119518 71.351334
-1.2025484 8.3801556 71.724579
-0.274454 8.2594976 71.843307
0.62043726 8.182621 71.861832
1.4804326 8.1586819 71.75824
2.3062725 8.1942539 71.516388
3.1164017 8.2635288 71.195557
3.8463116 8.5019646 70.478569
4.5386567 8.8483963 69.506104
5.0223508 9.7103138 67.319695
-4.3368435 8.2468204 70.313202
-3.3360801 8.0712776 70.564926
-2.1648283 7.6415877 71.421608
-1.1617526 7.4229989 71.780792
-0.23777378 7.3065729 71.898781
0.65115798 7.2356777 71.909241
1.5075654 7.2125721 71.80603
2.3285275 7.2495198 71.558968
3.1354036 7.3163943 71.23954
3.8605943 7.5502143 70.517021
4.7365842 7.4996128 70.47905
5.4897747 7.7123318 69.804161
4.3344812 12.420747 58.219681
-4.2357249 7.2104611 70.517815
-3.2664781 7.0743232 70.687546
-2.1161332 6.6797934 71.49147
-1.121374 6.4741068 71.836281
-0.20134723 6.3616529 71.954018
0.681687 6.2964649 71.956482
1.5344721 6.2742715 71.853432
2.3506503 6.3123374 71.601433
3.1542549 6.3769403 71.283165
3.874814 6.6059189 70.555405
4.7488222 6.5540586 70.525093
5.4981141 6.7611699 69.84848
4.3308892 11.34269 58.219151
-4.1977205 6.2630677 70.528625
-3.1977468 6.0878501 70.808426
-2.0678635 5.7265525 71.560722
-1.0813264 5.5332704 71.891296
-0.16522634 5.4247379 72.008789
0.71190226 5.3650742 72.003105
1.5612198 5.343596 71.900673
2.3725991 5.3827128 71.643555
3.1729527 5.445075 71.326431
3.8887687 5.6693659 70.592773
4.6665368 5.7994533 70.099037
5.4288416 5.9774442 69.480278
5.2252016 8.3001299 63.315666
-4.4543533 5.6728349 69.627983
-3.1297178 5.1114936 70.928062
-2.0418344 4.8097544 71.556183
-1.0849098 4.658257 71.794273
-0.17422426 4.5582156 71.899055
0.69150603 4.5146952 71.856293
1.528423 4.5110383 71.708931
2.3504796 4.5308137 71.499687
3.134696 4.616344 71.116089
3.8804011 4.7796221 70.525146
4.5786467 5.0509586 69.644897
5.1343646 5.6398301 67.91507
5.2271729 7.2892265 63.345314
5.1474762 9.5617981 57.088062
6.0758257 9.7124977 56.497478
-3.2759986 4.4005208 70.357468
-2.2252183 4.159255 70.848564
-1.2584518 4.0068712 71.101715
-0.3486675 3.9183159 71.183365
0.52162611 3.877511 71.136124
1.3630749 3.8754578 70.983681
2.2550206 3.7950029 71.045563
2.9758868 3.9848495 70.367943
3.7446337 4.1131735 69.856964
4.4752283 4.3256025 69.113052
5.1016293 4.7648869 67.741089
5.2291861 6.2858067 63.375031
5.1605816 8.4498186 57.209915
6.1054287 8.5452442 56.759724
6.9663658 8.8703508 55.669605
7.7809076 9.3816929 54.05653
8.5608969 10.097277 51.866871
-2.9117932 3.0914488 71.434814
-1.9561557 2.9537487 71.662048
-1.0909146 2.9178529 71.60537
-0.22985351 2.8843474 71.542404
0.62900221 2.8508482 71.479843
1.4856573 2.8173552 71.417671
2.3401136 2.7838717 71.355888
3.1668701 2.7905283 71.180664
3.9514871 2.8678317 70.80455
4.5595779 3.2638006 69.519722
4.5897202 4.7841434 65.020142
5.2311382 5.2899938 63.404243
5.0773568 7.5524607 56.745651
6.0227494 7.6478481 56.285831
6.8960171 7.936264 55.26902
7.7670336 8.2813482 54.085133
8.6389523 8.6902399 52.712467
9.5137997 9.1766529 51.110107
10.381877 9.8036585 49.093452
-3.2442698 2.5929585 70.262512
-2.2387962 2.4146175 70.619682
-1.3704809 2.387455 70.539536
-0.50939167 2.3670812 70.439941
0.35022652 2.3468208 70.340279
1.2084543 2.3265944 70.240784
2.0651197 2.3066406 70.140732
2.9042201 2.3113227 69.968521
3.6755137 2.4251246 69.474792
2.1708207 6.4063191 57.561626
3.1322393 6.4414029 57.27327
5.0536108 4.6448646 62.415421
4.8774691 6.8893685 55.572601
5.8200479 7.0096045 55.026924
6.7355957 7.2133112 54.230629
7.6423154 7.4754252 53.257065
8.5546074 7.7719421 52.177059
9.4739571 8.1091871 50.970955
10.3984 8.508461 49.573872
11.336415 8.9611225 48.010681
12.267372 9.5865717 45.919491
-9.2167444 8.1528349 50.821983
-7.5161486 7.4524202 52.72823
-4.0032339 4.5814133 61.192524
-4.8769269 6.7991495 54.308048
-3.9284506 6.9002304 53.808331
-0.15976632 3.2630854 64.659592
0.34753978 3.8163953 62.805511
1.0741409 4.1051507 61.75103
0.86584973 5.8688941 56.184334
1.7994902 5.9699216 55.687576
2.6989181 6.1424265 54.97007
3.5769844 6.376565 54.060688
4.2721233 7.0034213 51.937508
5.3734188 6.863615 52.174671
6.4355211 6.7910094 52.20562
7.4219446 6.8937883 51.693363
8.3821783 7.0873985 50.897339
9.3399029 7.3293085 49.948265
10.305306 7.6023059 48.898941
11.271997 7.9432321 47.633472
12.249852 8.3399324 46.188629
13.147139 9.2993021 42.970554
-11.577142 8.3343048 46.886398
-9.6814127 7.5280361 49.191582
-8.1490698 7.0510926 50.477886
-6.8609495 6.8098049 51.032135
-5.8544044 6.8779278 50.617863
-3.229351 6.2496204 52.198307
-1.9755934 5.9685307 52.890423
-0.78874683 5.7531109 53.378326
0.28220475 5.6868534 53.395584
1.2679751 5.7469521 53.011711
2.1932271 5.9151917 52.282204
3.1884422 5.9809322 51.87793
3.9827833 6.4365835 50.224182
4.7428064 7.0293045 48.124367
5.4368782 7.8613892 45.246716
6.0021791 9.1450205 40.902542
8.0404892 6.820775 48.19239
9.1046162 6.8235493 47.983032
10.124561 6.9694934 47.309315
11.138948 7.1743388 46.442188
12.129119 7.5435996 45.036812
13.100433 8.1394091 42.887043
14.061354 9.0597363 39.667866
-12.476019 8.052249 43.943302
-10.363635 7.0895529 46.85125
-8.9919567 6.8217444 47.512695
-7.928792 6.8659391 47.160931
-4.7791085 7.0721226 45.860435
-2.7377806 5.8734293 49.592037
-1.5263537 5.6792521 50.030819
-0.37012815 5.5431828 50.280476
0.69101268 5.535408 50.107529
1.69279 5.62186 49.622231
2.6417093 5.8095341 48.799332
3.6507125 5.9134054 48.252861
4.4504175 6.4419432 46.287701
5.2250452 7.1072564 43.857643
5.8814173 8.1583185 40.125389
9.7573137 6.8806157 43.783112
10.882479 6.8143721 43.79887
11.932587 7.0303507 42.859753
12.961633 7.423213 41.317276
13.989346 7.9941478 39.163651
15.025609 8.8181858 36.139397
-11.446846 6.9889007 43.20174
-10.102718 6.7972517 43.634094
-9.283349 7.1358132 42.269421
-3.5584955 5.7797837 46.04081
-2.3475304 5.6418819 46.306046
-1.0704474 5.3983488 46.936523
0.080181658 5.310863 47.032852
1.1318862 5.36514 46.640919
2.1364524 5.5035405 45.957073
3.1571684 5.6325607 45.30373
4.1452465 5.8417239 44.369976
4.9330568 6.489512 41.905609
5.6369538 7.4328423 38.400326
6.2019649 8.887023 33.094635
11.65635 6.7749882 39.619987
12.764797 6.936111 38.835358
13.849857 7.2947693 37.348839
-12.775192 7.036252 38.745358
-11.321218 6.7922568 39.381592
-10.475077 7.135376 37.943016
-3.1149607 5.456481 42.818382
-1.868872 5.3109531 43.126575
-0.62617886 5.1537261 43.479031
0.51861101 5.1222029 43.381191
1.6015526 5.1837549 42.947941
2.5905352 5.4111862 41.913853
3.7448931 5.37432 41.834133
4.5717397 5.9670119 39.468609
5.364296 6.7330236 36.463276
5.457365 9.2520189 27.053204
12.465379 6.8339028 34.751144
13.577396 7.2493172 32.992981
-12.63918 6.7868538 34.78191
-4.4015398 5.8190155 37.00132
-2.9416208 5.487762 38.016716
-1.5018898 5.1461625 39.076199
-0.2609688 5.0447898 39.237526
0.88172245 5.0781674 38.892555
1.9646322 5.2119851 38.167671
2.997273 5.4517322 37.039703
4.1613059 5.4852047 36.690346
4.9941325 6.1910763 33.784657
5.390667 7.9876604 26.713295
13.443296 6.4075089 31.352158
-13.562155 6.3345971 31.514107
-3.7012205 5.1746974 34.384834
-2.6091213 5.3383245 33.51268
-1.1777167 5.0630941 34.364792
0.10238552 4.9703674 34.501762
1.2578979 5.0561085 33.93502
2.3572974 5.2464981 32.952446
3.5882969 5.2333908 32.774254
4.0556889 6.6852455 26.770824
5.0012503 7.401577 23.674276
-2.9911218 6.1312399 24.726089
-1.7830895 6.2831221 23.850201
-1.0645112 7.170898 19.923771
-0.80159152 8.900547 12.487858
2.3571949 6.0085397 24.243855
3.6161752 6.1079264 23.582561
4.6742439 6.6271768 21.166048
-2.7173662 6.1163611 18.587158
-1.7936677 6.75105 15.566877
-2.0858884 9.2898312 4.2357521
1.7641107 5.5672722 20.206619
3.2061834 5.4130464 20.626993
4.360105 5.7780509 18.772898
5.0282631 7.2321396 12.12579
-3.9151702 8.0795441 2.7912178
-2.3231058 8.0152197 2.7953224
-0.93368137 8.2499552 1.4258957
2.7046194 4.8093452 16.982059
3.8940363 5.1557055 15.123367
4.7573562 6.2176514 9.9482613
-2.7671595 6.9952021 0.013935089
1.5268565 5.187501 8.2084122
3.182725 4.8757038 9.4496269
4.2817292 5.5456781 5.9063988
0.84635079 4.6391144 3.2306442
2.5014415 4.425683 4.0436096
4.0011778 4.444705 3.6612511
5.2984858 4.8650322 1.2029076
0.6533891 3.3095732 1.9594002
2.3804665 3.013298 3.2903671
3.8778529 3.0406322 2.8558884
-1.0788306 14.409433 59.237324
0.016280293 14.384028 59.236423
1.1024262 14.358793 59.236164
2.1792784 14.333793 59.235588
3.2468333 14.309046 59.234406
0.17785466 12.833578 70.151215
1.162738 12.814548 70.150192
1.9897314 12.813789 69.849289
2.4988341 12.852401 68.893555
2.3036523 12.982225 66.408554
0.016280293 13.390322 59.236423
1.1024262 13.369291 59.236164
2.1792784 13.348458 59.235588
3.2468333 13.327835 59.234406
4.3057404 13.307348 59.233841
-1.3109988 11.937024 71.069717
-0.023925662 11.894717 71.620735
0.98501122 11.876369 71.687515
1.8441602 11.871408 71.481644
2.6107087 11.875196 71.09549
3.2724509 11.889555 70.488861
3.805593 11.91765 69.592827
4.0668502 11.975385 68.070206
3.8244162 12.089678 65.346123
2.1792784 12.363123 59.235588
3.2468333 12.346625 59.234406
4.3057404 12.330236 59.233841
5.3556066 12.314012 59.232674
-2.5267258 14.617103 5.4850998
-1.3942345 14.666639 3.8317261
-2.1565418 11.05982 71.33992
-0.70509326 11.017824 72.165482
0.34841168 11.001138 72.311386
1.3007871 10.990762 72.288559
2.1770706 10.985335 72.132141
2.9313684 10.988532 71.738998
3.618732 10.996855 71.202957
4.1992812 11.013706 70.427475
4.6940494 11.038066 69.438042
4.8781452 11.088472 67.711395
4.7425284 11.167662 65.161102
3.2468333 11.365416 59.234406
4.3057404 11.353123 59.233841
5.3556066 11.340955 59.232674
3.6080117 11.583498 51.930405
3.8179445 11.656287 49.45842
4.0377631 11.732507 46.869934
4.2683406 11.812391 44.15694
3.9158173 11.957467 39.524506
-1.9276913 12.84307 12.656284
-1.1356648 12.909718 10.163769
-0.60300243 13.011921 6.6019821
-1.67074 10.159325 72.196854
-0.47506034 10.142255 72.58149
0.53736889 10.132777 72.661888
1.4796335 10.126143 72.628967
2.3191657 10.124084 72.40979
3.1225457 10.123684 72.12265
3.7937746 10.129818 71.563911
4.4415598 10.137433 70.941139
4.9386406 10.153255 69.971466
5.2881455 10.177728 68.631706
5.3204274 10.220787 66.497032
3.2468333 10.384205 59.234406
4.3057404 10.37601 59.233841
5.3556066 10.367898 59.232674
5.6750927 10.403779 57.342094
6.4353867 10.414145 56.540756
7.0782328 10.432716 55.379887
7.7331734 10.451636 54.197174
8.4005518 10.470916 52.991997
9.0807352 10.490564 51.763702
9.7740841 10.510594 50.511627
10.47202 10.531698 49.204868
11.183981 10.553249 47.870674
11.853634 10.579907 46.300934
12.360648 10.622516 44.007156
12.888078 10.666841 41.620991
13.436013 10.713097 39.13179
14.006892 10.761309 36.537399
-3.3089466 9.3081903 71.084091
-1.547757 9.2878771 72.413795
-0.39303863 9.2801971 72.72982
0.62543118 9.2752829 72.825241
1.5379974 9.2726107 72.740051
2.39746 9.2710791 72.562767
3.1870146 9.2711716 72.252029
3.8839526 9.2735653 71.749878
4.5139441 9.2777719 71.094604
5.0236526 9.2853098 70.15686
5.4096861 9.2965174 68.904526
5.5282531 9.3156071 66.977463
5.4884167 9.3401375 64.574471
4.3057404 9.3988972 59.233841
5.003665 9.4052553 58.340462
5.9484768 9.4044619 58.057831
6.758976 9.4078293 57.416328
7.4306917 9.4158764 56.366405
8.0863667 9.4249592 55.220642
8.7542324 9.4342051 54.054089
9.4345369 9.4436235 52.865826
10.127492 9.4532223 51.654896
10.833709 9.4629993 50.421368
11.553329 9.4729671 49.163857
12.286031 9.4831619 47.878983
12.931956 9.4978571 46.183681
13.490625 9.5176315 44.021004
14.070116 9.5381508 41.776917
14.67172 9.559453 39.447201
15.296933 9.5815735 37.027767
-3.1496582 8.4217844 71.358246
-1.4995478 8.4217844 72.498825
-0.36218822 8.4217844 72.785614
0.66464722 8.4217844 72.897972
1.563161 8.4217844 72.787949
2.4245152 8.4217844 72.615631
3.2138181 8.4217844 72.305817
3.9162612 8.4217844 71.816513
4.6379533 8.4217844 71.357513
5.383317 8.4217844 70.941238
5.7928963 8.4217844 69.764702
5.6343679 8.4217844 67.222786
5.6219773 8.4217844 64.892662
5.6074028 8.4217844 62.431549
4.9966063 8.4217844 58.322578
5.9642053 8.4217844 58.098999
6.7711921 8.4217844 57.449383
7.4443712 8.4217844 56.404675
8.1004448 8.4217844 55.261433
8.7685823 8.4217844 54.09716
9.4491186 8.4217844 52.91127
10.14241 8.4217844 51.703156
10.848823 8.4217844 50.472195
11.568827 8.4217844 49.218102
12.302598 8.4217844 47.939449
12.958519 8.4217844 46.284897
13.522107 8.4217844 44.14637
14.106519 8.4217844 41.928787
14.712951 8.4217844 39.627678
15.342762 8.4217844 37.238674
-4.1459627 7.5351911 71.38533
-3.0538769 7.5408206 71.523109
-1.4658774 7.5574741 72.55822
-0.33488548 7.5646639 72.834999
0.68778908 7.5697012 72.94091
1.5858079 7.5720663 72.831055
2.4440637 7.5735941 72.653831
3.2330475 7.5735126 72.344414
3.9311848 7.5711746 71.847275
4.7697678 7.5722904 71.636971
5.511878 7.5709524 71.221626
6.0391498 7.5638232 70.317459
5.6343679 7.5308619 67.222786
5.6215258 7.5071635 64.891586
5.6087995 7.4821939 62.434975
4.8642592 7.4341879 57.987061
5.7397056 7.4327536 57.511253
6.5287752 7.4285293 56.793442
7.1737652 7.4194012 55.647274
7.830719 7.4101038 54.479839
8.5000944 7.4006367 53.29089
9.1819983 7.3909864 52.079128
9.8769083 7.3811522 50.844246
10.585205 7.3711281 49.585571
11.307289 7.3609095 48.30241
12.027294 7.3498249 46.934692
12.588001 7.3310862 44.873329
13.147266 7.3107328 42.653339
13.727897 7.2896109 40.349377
14.331033 7.2676697 37.956108
-4.1075878 6.6502032 71.449799
-3.0176926 6.6614008 71.585388
-1.4322594 6.6946273 72.617516
-0.30761802 6.7087555 72.8843
0.71102917 6.7186728 72.984016
1.60843 6.7233973 72.8741
2.4635873 6.7263293 72.691986
3.2521496 6.7261658 72.382736
3.9460869 6.7213035 71.878014
4.7877312 6.7237082 71.675056
5.5259972 6.7208548 71.252411
6.0470953 6.706286 70.335297
5.6344762 6.639945 67.223038
5.6208515 6.592505 64.889969
5.7343435 6.5498333 62.743397
5.735116 6.4981318 60.194778
4.0699706 6.3420925 53.139824
4.3076015 6.2961245 50.783356
4.5559816 6.2480793 48.320366
4.8158374 6.1978111 45.743462
5.0264735 6.1409369 42.85976
5.0967951 6.0703382 39.353142
5.1773639 5.9956522 35.641182
2.8518147 5.7328286 23.575201
3.9929309 5.7237797 22.693321
4.6208959 5.6720662 19.904562
4.7638111 5.574995 15.06546
4.572916 5.44033 8.5008926
5.10221 5.3605762 4.3677406
-2.9505863 5.7855034 71.70089
-1.3984421 5.8332572 72.677162
-0.28039825 5.8540559 72.933533
0.73424351 5.8686967 73.027069
1.6310216 5.8757749 72.917107
2.4830937 5.8799882 72.730095
3.271225 5.8797436 72.421021
3.9609847 5.8721704 71.908722
4.5921168 5.8597751 71.26033
5.3677979 5.8580513 70.907394
5.7885408 5.8278689 69.754929
5.6343679 5.7490168 67.222786
5.6205087 5.6778364 64.88916
5.6067114 5.6028318 62.42984
2.0340099 3.8033743 4.6657028
3.6599417 3.8283219 4.8644104
4.9833269 3.813498 3.8718262
-2.9932365 4.9031034 71.627472
-1.3842086 4.9716539 72.702278
-0.26031291 4.9999313 72.969849
0.74052346 5.0182376 73.038719
1.6502982 5.0288925 72.953796
2.4946709 5.0338202 72.752716
3.2837801 5.0336142 72.44622
3.9650631 5.0227041 71.917145
4.5985327 5.006423 71.273933
5.1041241 4.9760532 70.332359
5.4931707 4.9317493 69.091919
5.6340413 4.858058 67.222023
5.6206245 4.7631998 64.889435
5.6064796 4.6631546 62.429276
3.0882845 2.1959147 2.5874405
-2.0594349 4.0356283 71.51123
-0.56376255 4.1107545 72.421082
0.47156823 4.1368361 72.539841
1.4206086 4.1540446 72.516617
2.2895122 4.1625218 72.351852
3.005537 4.1528587 71.887833
3.712738 4.141654 71.396812
4.2830057 4.1125402 70.604996
4.7668662 4.0707803 69.596848
-2.5144844 3.2050471 72.451485
-1.3703717 3.2483964 72.726685
-0.39592922 3.2709241 72.724602
0.57018483 3.2932725 72.722755
1.5279456 3.3154278 72.720924
2.4774737 3.3373928 72.719116
3.3681922 3.3518014 72.615616
4.1097507 3.3446889 72.215508
4.6880994 3.3123827 71.463829
4.8609819 3.21526 69.802094
-1.4230078 2.2526917 70.867149
-0.30591094 2.2993612 71.097672
0.79429448 2.3453102 71.324516
1.8782216 2.390594 71.548203
2.8981781 2.4270768 71.672386
3.6551418 2.4196053 71.27803
3.279947 12.984486 67.2202
2.1084199 13.231735 65.832687
1.9688644 14.904655 57.909779
0.71622258 14.883733 57.772869
4.8617997 12.018651 65.626343
4.6432066 13.932053 57.003853
3.5426157 14.13309 55.895164
2.3913457 14.22972 55.245197
1.1763599 14.224783 55.038754
-0.10752749 14.130605 55.219585
-1.5261095 13.882261 56.066483
6.1133389 10.430765 66.768753
5.9076967 12.681814 57.116982
4.8778443 13.045319 55.370884
3.7531686 13.192329 54.531487
2.6010103 13.27508 53.961334
1.3913927 13.262737 53.786469
0.13185501 13.183561 53.887623
-1.2235789 12.990183 54.458435
-2.7710207 12.584811 55.898438
6.3382277 9.485014 64.981506
6.0317612 11.604808 56.286861
4.9835629 11.941156 54.719219
3.8703799 12.109964 53.821991
2.7112 12.178768 53.32357
1.5072775 12.169714 53.133953
0.25897908 12.098084 53.190956
-1.083981 11.907095 53.716465
-2.5875127 11.532806 54.958618
6.4746485 8.3587284 64.006432
6.3227057 10.906189 54.056812
5.2103095 11.087675 53.140736
4.3212438 11.655146 50.763462
3.3643241 12.023479 49.148964
2.3455684 12.242749 48.103355
1.2592211 12.332674 47.548767
0.051925838 12.240952 47.678841
-1.400733 11.832325 48.996925
-3.3863583 10.794286 52.66597
-4.5074453 10.897603 52.052689
9.186183 10.845251 50.095802
8.021409 10.827146 49.944172
6.7419276 10.548396 50.742825
5.7798409 10.985472 48.932098
4.9809327 11.670396 46.227924
4.1060739 12.118895 44.391014
3.1632113 12.392463 43.193573
2.1527851 12.525168 42.508656
1.0875626 12.561125 42.174175
-0.058366001 12.480625 42.258739
-1.3574128 12.206885 43.035034
-4.0111008 10.265615 49.774178
-4.98455 10.512975 48.668705
-5.990912 10.700165 47.781395
-7.0201702 10.846016 47.043919
-8.1687212 10.85544 46.792694
11.782748 10.554955 47.244301
10.753048 10.874098 45.909489
9.5743628 10.678628 46.386627
8.3231316 10.331088 47.393848
6.9914422 9.8551941 48.844852
6.3180861 10.908432 44.952343
5.5638041 11.63148 42.225189
4.6749835 11.996199 40.753925
3.75334 12.25377 39.659592
2.8077078 12.43918 38.818752
1.7987742 12.504919 38.393883
0.74385566 12.496433 38.225758
-0.37540168 12.400437 38.35841
-1.6330383 12.133699 39.07552
-3.3762732 11.28999 41.76421
-5.6463361 9.9003963 46.305588
-6.5600648 10.168472 45.175179
-7.4234176 10.468514 43.939957
-8.2980661 10.732474 42.831619
-9.2627869 10.885836 42.10178
13.202905 10.565126 43.377129
12.202764 10.901257 42.034882
11.072354 10.693413 42.535828
9.8237295 10.168349 44.103691
8.5151567 9.5864477 45.855431
7.1199822 8.8969297 47.960369
6.7415314 10.657558 41.844139
5.9874482 11.345945 39.338726
5.1570678 11.783944 37.678654
4.2951474 12.10452 36.41581
3.3806975 12.294426 35.591736
2.4423804 12.423228 34.972969
1.4681332 12.483078 34.584187
0.42340988 12.435659 34.550438
-0.6851272 12.306448 34.785522
-1.9278831 12.016389 35.547619
-3.7002511 11.100662 38.358269
-6.3902249 9.1853905 44.428173
-7.0799103 9.6880598 42.572525
-7.8061652 10.110312 40.986107
-8.5769396 10.453299 39.663471
-9.4051104 10.713093 38.615669
-10.318936 10.871462 37.89999
13.531449 10.844989 38.705772
12.489949 10.818872 38.596046
11.354325 10.455888 39.580765
10.071447 9.7027893 41.82571
8.5787706 8.5013971 45.511192
7.0799422 10.272459 39.382168
6.3889737 11.074884 36.60302
5.6119266 11.583677 34.777084
4.7739611 11.90707 33.551769
3.9141138 12.150073 32.587742
2.9394166 12.17226 32.331116
1.9201202 12.121816 32.305885
0.94771546 12.146544 32.041302
-0.097967088 12.065338 32.112663
-1.1846051 11.937037 32.331802
-2.2267866 11.877568 32.332062
-4.0052414 10.922486 35.1506
-6.9887686 8.6366053 42.135967
-7.5823998 9.222928 40.088577
-8.2328072 9.7020483 38.38443
-8.9186316 10.10829 36.914223
-9.6502819 10.439137 35.684299
-10.436681 10.693904 34.695255
-11.55397 10.622449 34.720955
-12.786399 10.451674 35.052887
14.766916 10.744661 35.741585
13.787142 10.868266 35.164387
12.735011 10.635848 35.705158
11.591515 10.117403 37.137844
10.244109 9.0355873 40.322788
7.3047719 9.6587095 37.789257
6.7516589 10.775108 34.136833
5.9965625 11.298694 32.330612
5.0343146 11.341905 32.012234
4.1543779 11.531268 31.244812
3.1436884 11.471275 31.245344
2.1507008 11.447037 31.135567
1.1802437 11.460217 30.911097
0.19034725 11.443554 30.777817
-0.81400746 11.408381 30.700657
-1.9338405 11.22302 31.079124
-3.0596178 11.046588 31.428091
-7.6945777 7.9575315 40.374332
-8.128006 8.7056217 37.915058
-8.6905317 9.2580757 36.05331
-9.3067141 9.7145996 34.486366
-10.385068 9.6757736 34.406891
-11.381665 9.7187605 34.082764
-12.84514 9.3215857 35.069809
15.844978 9.9306412 35.142506
14.850809 9.9566917 34.87566
13.858348 9.9824705 34.609966
12.86762 10.008206 34.34473
11.785373 9.6638851 35.195934
7.140172 8.072032 39.198582
7.0204983 10.306576 32.33062
6.1701627 10.603285 31.261683
5.3005843 10.819559 30.435532
4.5186629 11.175489 29.198044
3.6801429 11.386468 28.393963
2.7588632 11.433104 28.077768
1.8220074 11.449738 27.850554
0.87741357 11.452898 27.663157
-0.079816043 11.437495 27.530251
-1.0574095 11.395479 27.475042
-2.2310452 11.09916 28.162003
-4.0788207 9.9786301 31.247066
-8.7657051 8.0822763 36.174702
-9.2215977 8.7332764 34.094612
-10.434629 8.5521307 34.421329
-11.217084 8.8153048 33.467896
-11.834033 9.2218027 32.106533
-12.556027 9.5037441 31.106981
15.888739 8.8561068 35.153709
14.997162 9.6201696 32.727512
13.953979 9.2424583 33.647709
12.901096 8.9366541 34.353535
11.908705 8.9633684 34.087864
7.0509591 9.2889338 32.211617
6.3401408 9.9190702 30.215292
5.6683249 10.544345 28.240675
4.9438958 10.984041 26.804701
4.1838136 11.303703 25.716829
3.3022718 11.373466 25.34477
2.1658421 11.012688 26.197371
1.1819201 10.929132 26.259233
0.26660782 10.956461 26.006248
-0.458399 11.252728 24.994129
-1.3031297 11.359362 24.52001
-2.5117629 10.982103 25.407742
-10.48455 7.4203191 34.435875
-11.716652 7.2297349 34.76741
-11.959187 8.045372 32.310875
-12.355669 8.6593781 30.421364
15.932775 7.7740889 35.165337
15.162064 9.4754276 30.1632
14.054175 8.5488577 32.600021
12.934779 7.8576512 34.36274
7.0786514 8.2598972 32.11261
6.6247635 9.5246983 28.416346
6.0197043 10.280959 26.143465
5.3333902 10.771758 24.613167
4.5691161 11.052162 23.668858
3.736578 11.176223 23.158043
2.7124732 10.957753 23.589077
1.391799 10.278881 25.278715
0.55798632 10.420691 24.716991
-0.078227699 10.840855 23.397772
-0.70536178 11.236197 22.151125
-1.4337955 11.46095 21.372435
-2.441117 11.306359 21.624258
-11.883582 7.0650196 31.956339
-12.869471 8.1060648 28.798782
15.229877 8.6654282 29.569481
6.7888598 8.8740768 27.405539
6.3045955 9.9122486 24.449102
5.628562 10.407108 22.956114
4.9318767 10.799991 21.740694
4.122901 10.936462 21.211834
3.1532483 10.772657 21.481504
1.7884393 9.960516 23.466223
0.80830342 9.8442192 23.6028
0.23213154 10.355082 22.084429
-0.26641506 10.933188 20.395073
-0.87237114 11.311858 19.23595
-1.6091018 11.484487 18.62089
-2.7030621 11.184742 19.242367
6.0481267 5.9545207 32.332611
6.469337 9.2971773 23.485008
5.8587012 9.9346905 21.667591
5.2034545 10.401676 20.29719
4.4401655 10.604724 19.611332
3.5662966 10.582611 19.505976
2.4125926 10.076119 20.641552
0.92245466 9.0635414 23.065372
0.48717099 9.8080635 20.995169
0.090239108 10.543282 18.957031
-0.41058534 11.065619 17.467863
-0.7965855 11.70331 15.692234
-1.2564969 12.192471 14.299356
-1.9542456 12.341103 13.771152
6.5189905 8.4204693 23.221264
6.0547376 9.4109793 20.572218
5.4405913 9.9600153 19.036732
4.7329669 10.257753 18.133579
3.9278328 10.338067 17.774391
2.9539661 10.10714 18.188406
0.89456826 8.0472794 23.128258
0.64187819 9.1185436 20.310165
0.37554795 10.071991 17.794209
0.10794312 10.941234 15.495789
-0.14811605 11.754982 13.343063
-0.44537443 12.44775 11.495464
-0.79891962 13.013571 9.9656029
-1.1997929 13.4778 8.6895714
-1.740962 13.737707 7.9155769
6.2092304 8.8114052 19.712395
5.6690373 9.5248413 17.82251
5.0121441 9.9136543 16.724346
4.3030043 10.157475 15.979782
3.4558504 10.120327 15.913515
2.0783424 9.1539927 18.076509
0.61156923 8.1296282 20.368164
0.58999068 9.5100451 16.904034
0.43746573 10.570574 14.217079
0.26411635 11.51259 11.823263
0.043588698 12.313131 9.7751846
-0.20001549 13.021084 7.9548416
-0.47538561 13.635374 6.3632927
-0.76374429 14.18961 4.9198265
-1.1372752 14.602275 3.8151855
-1.6495924 14.82448 3.1618347
-2.41221 14.747786 3.210598
6.3130593 8.1050663 19.140091
5.8739004 9.0609541 16.73361
5.3301754 9.6819382 15.121643
4.6985421 10.057177 14.090559
3.9659321 10.200438 13.60445
3.0147696 9.9333382 14.074844
0.63884312 8.6912918 16.647385
0.60432822 9.9694967 13.533443
0.5156675 11.059628 10.866547
0.36717898 11.975955 8.6109238
0.19178921 12.784428 6.6124496
0.082556307 13.622015 4.5556412
-0.16376394 14.222301 3.049942
-0.50996679 14.656316 1.9296761
-1.2323422 14.606514 1.9148445
-1.9574122 14.556771 1.8993568
-2.6853952 14.506828 1.8838158
-3.4164863 14.456489 1.8686485
6.0852876 8.6339836 15.610001
5.6168833 9.4163322 13.67585
5.0397758 9.8864136 12.458073
4.3773236 10.139393 11.736513
