# .PCD v0.7 - Point Cloud Data file format
VERSION 0.7
FIELDS x y z
SIZE 4 4 4
TYPE F F F
COUNT 1 1 1
WIDTH 1612
HEIGHT 1
VIEWPOINT 0 0 0 1 0 0 0
POINTS 1612
DATA ascii
20.034897 15.274313 66.286575
20.537075 15.371623 65.409065
21.0403 15.469127 64.529739
21.54468 15.56645 63.648556
22.04998 15.66437 62.765587
22.556446 15.762096 61.88076
23.063957 15.860025 60.994102
23.572302 15.958933 60.105659
18.637613 15.004414 66.68589
19.138813 15.101535 65.807983
19.641172 15.198469 64.928223
20.144325 15.296375 64.046715
20.648766 15.393717 63.163307
21.154249 15.491246 62.278076
21.660782 15.588984 61.391014
22.16824 15.687321 60.50214
22.67676 15.785855 59.611412
23.186455 15.8842 58.718811
23.697092 15.983149 57.824371
24.209019 16.081509 56.928043
24.721678 16.181267 56.029881
25.235525 16.280834 55.129822
25.750546 16.380217 54.227882
18.74164 15.025024 64.445534
19.244968 15.122557 63.561764
19.749468 15.219902 62.676125
20.255007 15.317454 61.788658
20.761604 15.415195 60.899345
21.268879 15.51433 60.008263
21.777704 15.612089 59.115219
22.28723 15.711242 58.220379
22.798285 15.809016 57.323616
23.310055 15.908184 56.425022
23.822901 16.007555 55.524544
24.336813 16.107147 54.622185
24.851919 16.206537 53.71793
25.368101 16.306137 52.811783
25.885361 16.405952 51.90374
26.40361 16.506369 50.993774
18.84651 15.045803 62.187065
19.352114 15.143357 61.29734
19.858635 15.241516 60.405796
20.36622 15.339867 59.512383
20.874859 15.438431 58.617111
21.384809 15.536411 57.719936
21.895702 15.634989 56.820908
22.407534 15.734179 55.92001
22.920452 15.833559 55.017216
23.434551 15.932757 54.112534
23.949615 16.032568 53.205956
24.465986 16.13179 52.297478
24.983334 16.231609 51.387093
25.501657 16.332047 50.474773
26.021076 16.432695 49.560532
18.952232 15.066746 59.910267
19.459991 15.164726 59.014565
19.968821 15.262903 58.116985
20.47858 15.361687 57.217545
20.989534 15.460278 56.316208
21.50156 15.559071 55.412991
22.014532 15.658478 54.507881
22.528706 15.757692 53.600868
23.043844 15.857507 52.691944
23.560181 15.957139 51.781113
24.077606 16.056976 50.86837
24.596004 16.157433 49.953686
25.115503 16.258099 49.037064
25.636209 16.358568 48.11853
26.157906 16.459665 47.198029
18.042509 14.890512 59.41275
18.550062 14.989279 58.514786
19.058945 15.087473 57.61491
19.56889 15.185869 56.71315
20.080032 15.284077 55.809494
20.591988 15.383284 54.903961
21.105021 15.482697 53.996521
21.619265 15.581916 53.087166
22.134466 15.681748 52.175888
22.650871 15.781399 51.262707
23.168251 15.881654 50.34758
23.686729 15.982118 49.430511
24.206305 16.082798 48.511501
24.727093 16.183287 47.590572
25.24898 16.283997 46.66769
25.77187 16.385313 45.742821
26.296082 16.486038 44.816059
17.129068 14.713966 58.913277
17.636799 14.812351 58.013
18.145592 14.910948 57.110828
18.65559 15.009357 56.206757
19.16666 15.107967 55.300781
19.678675 15.207186 54.392906
20.191898 15.306214 53.483116
20.706072 15.405855 52.571407
21.221336 15.505698 51.657768
21.737812 15.605356 50.742214
22.255266 15.705619 49.824699
22.773926 15.805702 48.905266
23.293568 15.906403 47.98386
23.814325 16.007299 47.060493
24.336296 16.108023 46.135193
24.859371 16.208956 45.207935
25.383556 16.310106 44.278709
25.908758 16.411877 43.34745
26.435083 16.513859 42.414204
16.211863 14.537116 58.411842
16.719631 14.635511 57.509254
17.228476 14.734117 56.604755
17.738663 14.832143 55.698349
18.249645 14.931162 54.790043
18.761852 15.029987 53.879814
19.275129 15.129031 52.967674
19.789366 15.228673 52.053596
20.304686 15.328533 51.137585
20.821098 15.428604 50.219631
21.338734 15.528487 49.299747
21.857346 15.628981 48.377888
22.377058 15.729691 47.454071
22.897999 15.830211 46.528313
23.420044 15.930945 45.600594
23.943092 16.032291 44.670853
24.467361 16.133453 43.739178
24.992752 16.234835 42.805511
25.519154 16.336842 41.869804
26.046688 16.43906 40.932087
26.575455 16.541096 39.99242
27.105354 16.643347 39.050743
27.636293 16.746223 38.106972
28.168465 16.848921 37.161247
29.236158 17.05537 35.263622
29.771688 17.159143 34.311684
15.291153 14.359173 57.908409
15.798961 14.457579 57.003494
16.307846 14.556188 56.096664
16.818085 14.654221 55.187916
17.329117 14.753248 54.27726
17.841368 14.852091 53.364681
18.354567 14.951536 52.450161
18.868853 15.051193 51.533707
19.384228 15.151068 50.615307
19.900833 15.250746 49.694973
20.418406 15.351035 48.772663
20.937204 15.451144 47.848415
21.45698 15.551866 46.92218
21.977863 15.652809 45.993958
22.499987 15.753551 45.063797
23.02322 15.854515 44.131653
23.547571 15.95569 43.197517
24.072926 16.057491 42.261337
24.599407 16.159512 41.323147
25.127131 16.261347 40.382999
25.655882 16.363794 39.440777
26.185871 16.466064 38.496593
26.717003 16.568554 37.550373
27.249069 16.672089 36.601974
27.78249 16.775019 35.651684
28.317059 16.878174 34.699341
28.852684 16.981964 33.744858
29.38966 17.085144 32.78849
29.927608 17.189381 31.829868
14.366632 14.18091 57.402985
14.874479 14.279324 56.495724
15.383547 14.37755 55.586548
15.893685 14.47599 54.675453
16.404911 14.574625 53.762428
16.917065 14.673875 52.847473
17.430313 14.773327 51.930573
17.944649 14.872994 51.01173
18.460209 14.972483 50.09095
18.97674 15.07257 49.168186
19.494499 15.172478 48.243484
20.013229 15.272995 47.316788
20.533066 15.373732 46.388111
21.054144 15.474277 45.457481
21.57633 15.575038 44.524876
22.099514 15.676421 43.590221
22.623938 15.777614 42.653618
23.149368 15.879427 41.714951
23.676043 15.981055 40.774326
24.203735 16.083305 39.831623
24.73267 16.185377 38.886955
25.262749 16.287661 37.940254
25.793968 16.390163 36.991516
26.326328 16.492887 36.040733
26.859634 16.596657 35.087734
27.394293 16.699831 34.132851
27.930021 16.80364 33.175785
28.467003 16.907251 32.216759
29.005049 17.011517 31.25555
13.946299 14.100362 55.985928
14.455557 14.198202 55.074394
14.965744 14.296639 54.160931
15.476854 14.395685 53.245537
15.989054 14.494939 52.328197
16.502485 14.594007 51.40892
17.016861 14.693692 50.487671
17.532337 14.793579 49.564465
18.049057 14.893279 48.639301
18.56673 14.993604 47.712151
19.085653 15.093727 46.783047
19.605551 15.194471 45.851917
20.126558 15.295435 44.9188
20.648813 15.396207 43.983723
21.172186 15.497198 43.046646
21.696558 15.598808 42.107506
22.222181 15.700231 41.166397
22.748808 15.80228 40.223217
23.276691 15.904141 39.278065
23.805712 16.00622 38.330872
24.335752 16.108932 37.38158
24.86706 16.211452 36.430294
25.399506 16.314198 35.476967
25.933002 16.417574 34.521484
26.467651 16.521183 33.563934
27.540548 16.728636 31.642681
13.014559 13.920288 55.474091
13.523858 14.018131 54.560188
14.033923 14.116974 53.644348
14.545067 14.21603 52.72657
15.057457 14.314894 51.806839
15.570786 14.414364 50.885143
16.08535 14.513659 49.961502
16.600872 14.613555 49.03587
17.117493 14.713668 48.108261
17.635359 14.813596 47.178696
18.154196 14.914137 46.247105
18.674145 15.014892 45.313519
19.195347 15.115459 44.377972
19.717527 15.216652 43.440376
20.240967 15.317655 42.500809
20.76553 15.418872 41.559227
21.291094 15.52071 40.615562
21.817911 15.622377 39.669926
22.345745 15.724656 38.722183
22.874846 15.826748 37.772461
23.404963 15.929475 36.820614
23.936237 16.032421 35.866699
24.468887 16.134769 34.910881
25.002464 16.238163 33.952831
25.537315 16.341368 32.992783
26.073315 16.444805 32.030659
13.098516 13.936186 53.125694
13.60969 14.035251 52.205521
14.121958 14.134522 51.283375
14.635473 14.233606 50.35928
15.150085 14.332899 49.433212
15.665644 14.432807 48.505146
16.182304 14.532931 47.575096
16.70022 14.632864 46.643082
17.219103 14.733414 45.70903
17.739101 14.834177 44.77298
18.260218 14.935159 43.834908
18.782589 15.035962 42.894867
19.306089 15.136973 41.952805
19.83058 15.238609 41.008663
20.356337 15.340058 40.062534
20.883095 15.442135 39.114311
21.411123 15.544023 38.164097
21.940166 15.646543 37.211758
22.470362 15.749281 36.257347
23.001945 15.851422 35.301029
23.534441 15.954612 34.342476
24.068216 16.057606 33.38192
24.603146 16.160833 32.419285
25.139133 16.264687 31.454453
25.676395 16.368361 30.487619
26.21483 16.47226 29.518673
12.670547 13.853745 51.682373
13.182848 13.953014 50.757805
13.696397 14.052108 49.831287
14.210887 14.151812 48.902763
14.726477 14.251727 47.97226
15.243183 14.351854 47.039742
15.761145 14.4518 46.105263
16.280216 14.551961 45.168777
16.800259 14.652735 44.23024
17.321421 14.753725 43.28968
17.843847 14.854533 42.347145
18.367266 14.955958 41.402512
18.891947 15.057204 40.455906
19.417763 15.158667 39.507256
19.94445 15.261163 38.556416
20.472546 15.363065 37.603653
21.001785 15.465182 36.648827
21.532042 15.567939 35.691853
22.063581 15.670506 34.732872
22.596272 15.773299 33.771816
23.130001 15.876719 32.808578
23.665016 15.979964 31.843323
24.201199 16.08342 30.875977
24.738544 16.187113 29.906517
25.27696 16.291445 28.93482
25.816662 16.395586 27.961119
12.753353 13.870282 49.301147
13.268038 13.969589 48.370197
13.783661 14.069512 47.437229
14.3004 14.169644 46.502247
14.818399 14.269597 45.565296
15.337517 14.369763 44.626328
15.857595 14.470548 43.685295
16.378946 14.57115 42.742283
16.901138 14.672767 41.797123
17.42474 14.773808 40.850033
17.949478 14.875061 39.90089
18.475216 14.976933 38.949631
19.002089 15.079036 37.996307
19.530245 15.180954 37.040985
20.059418 15.283493 36.083508
20.589998 15.385445 35.124115
21.121349 15.488844 34.162373
21.654238 15.591237 33.198811
22.18804 15.694671 32.232956
22.723133 15.797925 31.265087
23.25939 15.901408 30.295107
23.796703 16.005522 29.322901
24.335312 16.109455 28.348671
24.874987 16.214031 27.372189
25.415852 16.318838 26.393553
12.836857 13.886958 46.899994
13.353625 13.987098 45.962532
13.871661 14.087059 45.023094
14.390815 14.187238 44.081627
14.911093 14.287619 43.13813
15.432335 14.388635 42.192547
15.954862 14.489453 41.244972
16.478363 14.590904 40.295288
17.00301 14.692569 39.343536
17.528936 14.794056 38.389786
18.055864 14.896165 37.433895
18.583941 14.998492 36.475925
19.113165 15.101058 35.515858
19.643684 15.20342 34.553787
20.175488 15.305604 33.589706
20.708195 15.40883 32.623337
21.242188 15.511868 31.654961
21.777348 15.615143 30.68446
22.31356 15.719051 29.711727
22.851076 15.822763 28.736967
23.389639 15.927134 27.759964
23.929399 16.031721 26.780796
24.470461 16.136129 25.799599
25.0126 16.241186 24.816114
12.92122 13.903374 44.478714
13.440248 14.003954 43.534695
13.960562 14.104353 42.588676
14.482002 14.204963 41.640614
15.004412 14.306203 40.690441
15.527958 14.40766 39.738205
16.052797 14.508927 38.783962
16.57877 14.61042 37.827648
17.10589 14.712133 36.869255
17.633724 14.815293 35.908539
18.163288 14.917044 34.946037
18.693726 15.01983 33.981274
19.225454 15.122437 33.014492
19.758224 15.225677 32.045483
20.292418 15.328321 31.074568
20.827524 15.432008 30.101311
21.363932 15.535514 29.126032
21.901388 15.639664 28.148495
22.440031 15.744048 27.168798
22.979992 15.848235 26.187059
23.521013 15.953076 25.203043
24.063236 16.058147 24.216839
24.606775 16.163033 23.228588
25.1514 16.268566 22.238018
13.0063 13.919925 42.037018
13.527611 14.020948 41.086361
14.05021 14.121793 40.133701
14.573793 14.223257 39.178902
15.098673 14.324534 38.222088
15.62454 14.426441 37.263123
16.151564 14.528566 36.302048
16.679729 14.630923 35.338886
17.209059 14.7335 34.373608
17.73984 14.835484 33.406391
18.271629 14.938098 32.436977
18.80431 15.041756 31.46524
19.338575 15.14441 30.491667
19.873875 15.247709 29.515854
20.410217 15.351644 28.537788
20.947746 15.455801 27.557564
21.48646 15.56019 26.575174
22.026491 15.664404 25.590733
22.567589 15.769266 24.603989
23.110016 15.873926 23.615192
23.653633 15.978827 22.624214
24.198343 16.084379 21.630894
24.744267 16.190168 20.635353
14.140466 14.13978 37.657822
14.66637 14.241698 36.696255
15.193585 14.343428 35.732662
15.721796 14.445789 34.766884
16.251022 14.548779 33.798885
16.781702 14.651187 32.828949
17.3137 14.753407 31.856977
17.846571 14.856668 30.882675
18.380903 14.959331 29.906443
18.916119 15.063049 28.927853
19.452526 15.166988 27.947094
19.990116 15.271173 26.964161
20.52903 15.375158 25.979185
21.069002 15.479795 24.991901
21.610302 15.584249 24.00256
22.152802 15.688938 23.011023
22.696377 15.794271 22.017155
23.241165 15.899839 21.021069
23.787167 16.005642 20.022764
24.334393 16.111689 19.022219
14.231646 14.15752 35.160919
14.759894 14.259893 34.192505
15.289149 14.362898 33.22187
15.820039 14.46489 32.249382
16.351786 14.567935 31.274555
16.884998 14.670383 30.297802
17.419094 14.773888 29.318672
17.954363 14.877624 28.337387
18.490824 14.981583 27.353924
19.028618 15.085347 26.368404
19.567455 15.189766 25.380583
20.10763 15.293999 24.390694
20.648867 15.398888 23.398472
21.191442 15.50358 22.404182
21.735214 15.608516 21.407692
22.280077 15.7141 20.408829
22.826157 15.819918 19.407736
23.373455 15.925982 18.404402
23.9221 16.031847 17.398991
14.32329 14.176224 32.642456
14.854062 14.278648 31.66721
15.386007 14.381289 30.689816
18.062946 14.899164 25.770025
18.601986 15.003183 24.779591
19.14208 15.107845 23.786823
19.683521 15.212322 22.791979
20.226164 15.31703 21.794926
20.769875 15.422404 20.795509
21.31481 15.527997 19.79385
21.86096 15.633834 18.789955
22.408466 15.739483 17.783964
22.957069 15.84579 16.775564
23.507023 15.951914 15.76507
18.172611 14.920484 23.180546
18.714108 15.024978 22.182936
19.256672 15.130121 21.182959
19.800592 15.235073 20.180893
20.345589 15.340687 19.176432
20.891809 15.446531 18.16972
21.439386 15.552204 17.160902
21.988064 15.658522 16.149666
22.538097 15.764662 15.13633
23.089249 15.871468 14.120525
23.64176 15.978087 13.102625
18.283228 14.941992 20.568544
18.827066 15.047376 19.563522
19.372126 15.153006 18.556236
19.918549 15.258442 17.546854
20.466061 15.364546 16.535036
21.014944 15.470462 15.521103
21.564922 15.577044 14.504725
22.116278 15.683432 13.486235
22.668743 15.790493 12.465265
23.222467 15.897794 11.441969
23.777561 16.00491 10.416565
18.394672 14.964101 17.933563
18.941158 15.069555 16.921337
19.488728 15.175663 15.906673
20.037678 15.281596 14.889877
20.587727 15.388192 13.870617
21.139023 15.495018 12.849049
21.691566 15.602094 11.825169
22.245495 15.708986 10.799154
22.800543 15.816551 9.770628
23.357105 15.923493 8.7401733
17.959454 14.880289 16.292995
18.507233 14.985986 15.275623
19.056105 15.092352 14.255772
19.606218 15.198952 13.233618
20.157717 15.305378 12.20933
20.710325 15.412465 11.182531
21.2642 15.519794 10.153391
21.819456 15.626947 9.1221199
22.375978 15.734339 8.0885029
22.933638 15.84241 7.0523243
25.177402 16.275846 2.8845711
25.741352 16.385586 1.8362579
17.521397 14.795912 14.64171
18.070471 14.901869 13.619139
18.620644 15.008493 12.594067
19.172066 15.115351 11.566669
19.724886 15.22202 10.537127
20.27882 15.32937 9.5050449
20.834158 15.436531 8.4708176
21.390615 15.544369 7.4340324
21.948486 15.65202 6.3950844
22.507624 15.759919 5.3537693
23.067787 15.868931 4.3096199
23.62949 15.977316 3.2635384
24.192472 16.085957 2.215065
24.75663 16.195278 1.1639404
17.630842 14.817204 11.951778
18.18232 14.924074 10.921446
18.735058 15.031189 9.8887558
19.289206 15.138122 8.8539085
19.844465 15.245724 7.8165054
20.40114 15.353142 6.7769413
20.959082 15.460808 5.7350044
21.518164 15.569154 4.6904564
22.078663 15.677313 3.6437492
22.640318 15.786156 2.5943985
23.203264 15.895247 1.5426445
17.18832 14.731972 10.273439
17.741114 14.8391 9.2377853
18.29517 14.946474 8.1997585
18.850636 15.05366 7.1595802
19.407238 15.161525 6.1167946
19.965252 15.269209 5.0718441
20.524544 15.377136 4.024498
21.085257 15.484869 2.9749908
21.646984 15.593733 1.922596
22.210005 15.702839 0.86777878
17.296982 14.753567 7.5429974
17.852364 14.8612 6.4995823
18.409166 14.968643 5.45401
18.967251 15.076336 4.4060287
19.526613 15.184277 3.355648
20.08712 15.292895 2.3026123
20.648922 15.401766 1.2471504
16.849905 14.667467 5.8369503
17.406767 14.774927 4.7883415
17.964912 14.882626 3.7373199
18.524189 14.991009 2.683651
19.085054 15.098784 1.6280212
16.958206 14.688076 3.0657005
17.51754 14.796474 2.0089531
18.078169 14.905122 0.94976044
18.456121 14.989009 64.514481
19.015364 15.096873 65.406586
19.575775 15.204599 66.30069
20.137711 15.313345 67.196945
20.701071 15.422734 68.095345
12.779315 13.890983 53.472458
13.327637 13.996737 54.344879
13.877298 14.103105 55.219292
14.428219 14.209721 56.095703
18.881327 15.071136 63.179909
19.443892 15.180363 64.074699
20.007524 15.289075 64.971481
20.572342 15.397654 65.870285
21.13871 15.507259 66.771271
21.706638 15.617891 67.674446
22.275902 15.728788 68.579758
12.624946 13.861306 51.224869
13.175076 13.96777 52.097729
13.726475 14.074476 52.972599
14.279135 14.181435 53.849468
14.832972 14.288247 54.728363
15.388276 14.396073 55.609283
15.944667 14.503386 56.492222
16.502542 14.611713 57.37722
18.746685 15.046362 60.937721
19.310499 15.154022 61.832893
19.87607 15.263472 62.730251
20.443192 15.373949 63.629768
21.011406 15.48391 64.531326
21.580826 15.593744 65.434937
22.151945 15.705001 66.34079
22.724148 15.815734 67.248672
23.29756 15.926332 68.15863
13.021378 13.938231 49.834988
13.574599 14.045649 50.710266
14.129014 14.152943 51.587593
14.6847 14.260475 52.466934
15.241581 14.367889 53.34832
15.799848 14.475926 54.231743
16.359402 14.584214 55.117203
16.920256 14.692753 56.004715
17.482306 14.801155 56.894287
18.045986 14.910969 57.785957
18.610649 15.019878 58.679665
19.176512 15.128657 59.575424
19.74404 15.238852 60.473335
20.312893 15.349306 61.373352
20.882837 15.459232 62.275414
21.454241 15.569815 63.179623
22.026728 15.679873 64.085869
22.601061 15.791749 64.9944
23.176624 15.903502 65.905029
23.753281 16.01473 66.817719
24.331287 16.126217 67.732536
12.866777 13.909237 47.556416
13.421574 14.016235 48.432167
13.977745 14.123871 49.309917
14.535208 14.231755 50.189701
15.093956 14.339886 51.071518
15.654009 14.448269 51.955399
16.215157 14.556135 52.841335
16.777916 14.66541 53.729313
17.341881 14.774548 54.619362
17.907272 14.884332 55.511501
18.473768 14.993595 56.405712
19.041813 15.103891 57.302032
19.611076 15.214062 58.200439
20.181309 15.323311 59.100891
20.753241 15.433992 60.00351
21.326515 15.544937 60.908253
21.901133 15.656137 61.815117
22.477365 15.76839 62.72419
23.054304 15.878933 63.635223
23.632862 15.990526 64.548477
24.213463 16.104362 65.464104
24.794764 16.216486 66.381683
25.377441 16.32888 67.301437
13.267571 13.987005 46.138084
13.825512 14.09498 47.016247
14.384468 14.202057 47.896534
14.9452 14.311306 48.778736
15.507041 14.420034 49.663036
16.070303 14.529408 50.549393
16.634779 14.638652 51.43784
17.200253 14.746984 52.328388
17.767475 14.85712 53.220985
18.335918 14.967126 54.115677
18.905697 15.07739 55.012474
19.477049 15.188702 55.911381
20.049158 15.298311 56.812378
20.623325 15.410531 57.715546
21.198374 15.521452 58.620808
21.774387 15.631445 59.52813
22.352522 15.744068 60.437714
22.931768 15.856162 61.349415
23.512524 15.968925 62.263306
24.094244 16.080753 63.179253
24.677483 16.193254 64.097412
25.262533 16.307222 65.017876
25.848686 16.420652 65.940445
13.112659 13.95833 43.827782
13.67239 14.066648 44.706352
14.233144 14.174074 45.587078
14.795391 14.282519 46.46978
15.359042 14.391598 47.354511
15.923811 14.500164 48.241356
16.490419 14.61092 49.130169
17.058044 14.720764 50.021133
17.62701 14.830876 50.914204
18.19698 14.940079 51.809395
18.768728 15.05109 52.706646
19.341833 15.162373 53.606022
19.916059 15.273133 54.50753
20.491999 15.38533 55.411167
21.068939 15.496611 56.31694
21.647367 15.608551 57.224861
22.227299 15.721157 58.134953
22.808222 15.832836 59.047157
23.390644 15.945175 59.961533
23.974451 16.057785 60.878086
24.559786 16.171059 61.796844
25.146366 16.284199 62.717754
25.734789 16.398823 63.640984
26.324619 16.513718 64.566422
12.956121 13.927151 41.501453
13.517727 14.036201 42.380341
14.080561 14.145128 43.261341
14.644908 14.255081 44.144321
15.210293 14.364127 45.029514
15.776795 14.472655 45.916843
16.345036 14.582998 46.806107
16.914509 14.693202 47.697506
17.485327 14.803667 48.591007
18.057491 14.914396 49.486614
18.631014 15.025394 50.384342
19.205542 15.135464 51.284233
19.781767 15.246975 52.186203
20.35961 15.359549 53.090309
20.938581 15.471597 53.996567
21.518934 15.583914 54.904991
22.100794 15.696886 55.815582
22.683651 15.808938 56.728317
23.268288 15.922453 57.643257
24.441227 16.148699 59.479645
25.029654 16.261824 60.4011
25.619766 16.376022 61.324806
26.2113 16.490496 62.250732
13.361972 14.005535 40.037899
13.926613 14.114805 40.919266
14.49268 14.224733 41.802643
15.059886 14.33413 42.688217
15.628828 14.445344 43.575691
16.198923 14.556046 44.465363
16.770161 14.666224 45.357227
17.34285 14.777058 46.251152
17.916786 14.887756 47.147232
18.492191 14.999116 48.045399
19.068966 15.110733 48.945705
19.646992 15.222231 49.84816
20.226511 15.334378 50.752754
20.807161 15.446003 51.659515
21.389446 15.55869 52.56842
21.97324 15.672043 53.479477
22.558315 15.785274 54.392738
23.144922 15.899174 55.308182
23.732662 16.012535 56.225815
13.771851 14.085442 38.560352
14.339561 14.194939 39.444221
14.908609 14.304695 40.33017
15.479198 14.415487 41.218098
16.050943 14.525766 42.108246
16.624352 14.637485 43.000343
17.199131 14.74946 43.894581
17.774956 14.860526 44.79108
18.352261 14.972249 45.689674
18.930944 15.084244 46.590408
19.511005 15.196501 47.493286
20.092329 15.308631 48.398346
20.675165 15.421419 49.305553
21.259396 15.534483 50.21492
21.844904 15.647428 51.126492
22.431805 15.760628 52.040237
23.020248 15.874507 52.956169
23.610245 15.989059 53.874302
24.201532 16.103495 54.794655
14.185733 14.166495 37.068661
14.756544 14.276222 37.955055
15.3288 14.386599 38.843468
15.902311 14.496844 39.734051
16.477602 14.608919 40.626518
17.054167 14.720882 41.521168
17.632105 14.833093 42.417969
18.211319 14.945195 43.316956
18.79192 15.057552 44.218105
19.373913 15.17019 45.121407
19.95718 15.282689 46.026917
20.541965 15.395864 46.934555
21.128157 15.509308 47.844376
21.715755 15.623024 48.756382
22.304644 15.73661 49.67062
22.895081 15.850879 50.587029
23.48694 15.965418 51.50565
24.08009 16.079828 52.426498
24.674959 16.195332 53.349564
25.270987 16.310305 54.274879
14.030414 14.136281 34.676327
14.60348 14.247935 35.562752
15.177723 14.359072 36.451462
15.753027 14.469283 37.342506
16.330112 14.581346 38.235382
16.908587 14.693669 39.130409
17.488443 14.806264 40.027576
18.069473 14.918338 40.927021
18.651894 15.030681 41.828613
19.235828 15.143688 42.732327
19.821167 15.256963 43.638214
20.407791 15.370114 44.546314
20.995956 15.483947 45.456566
21.585539 15.598045 46.369019
22.176544 15.712414 47.283676
22.76885 15.826668 48.200569
23.362722 15.941599 49.119659
23.957901 16.056404 50.041004
24.554663 16.171896 50.964565
25.153017 16.288074 51.890358
25.752686 16.404119 52.818417
14.448921 14.217874 33.1535
15.024948 14.328976 34.042618
15.602557 14.441136 34.933693
16.181656 14.553958 35.826828
16.761623 14.665077 36.7225
17.343296 14.777644 37.62009
17.926483 14.890892 38.519772
18.510965 15.004003 39.421696
19.096857 15.11739 40.325794
19.684042 15.230647 41.232132
20.27277 15.344595 42.140598
20.862917 15.458797 43.05127
21.454372 15.572883 43.964195
22.047386 15.687652 44.87928
22.641836 15.802689 45.796589
23.237606 15.917607 46.716171
23.834953 16.033213 47.637947
24.433762 16.149101 48.561977
25.033886 16.264858 49.488281
25.635765 16.381721 50.416809
26.238976 16.498459 51.34763
14.293243 14.187597 30.726828
14.871666 14.301042 31.615776
15.450991 14.412781 32.507362
16.031494 14.523999 33.401253
16.613916 14.637468 34.296856
17.197424 14.750022 35.19487
17.782335 14.862842 36.095051
18.368662 14.97593 36.99741
18.956514 15.089698 37.901867
19.545916 15.204147 38.808449
20.136753 15.318869 39.717243
20.728775 15.43306 40.628368
21.322367 15.547942 41.541649
21.917402 15.6631 42.457153
22.513752 15.778127 43.374939
23.111694 15.89385 44.294914
23.711098 16.009848 45.21714
24.311823 16.125723 46.141655
24.914164 16.242292 47.068401
25.517982 16.35915 47.997421
26.123283 16.476292 48.928722
15.297811 14.382233 30.063843
15.88076 14.495808 30.957563
16.465128 14.60966 31.853462
17.050377 14.721788 32.75201
17.637363 14.835388 33.652443
18.225891 14.949667 34.554981
18.815617 15.063415 35.459881
19.406654 15.177036 36.367054
19.999243 15.291342 37.276344
20.593523 15.406733 38.187706
21.189262 15.522408 39.101303
21.786329 15.637959 40.0172
22.384726 15.753378 40.935406
22.984858 15.869914 41.855736
23.586185 15.985898 42.778439
24.189127 16.102585 43.70335
24.793554 16.219559 44.630539
25.399467 16.336823 45.560009
26.006729 16.45396 46.49181
16.314716 14.579638 29.392672
16.902246 14.693348 30.291225
17.491436 14.808134 31.19178
18.081608 14.92159 32.094921
18.67321 15.035321 33.000248
19.266726 15.150951 33.907413
19.861704 15.266858 34.816822
20.457647 15.381432 35.72879
21.05517 15.496687 36.642902
21.654152 15.612221 37.55925
22.254604 15.728046 38.47784
22.856796 15.84497 39.398552
23.46034 15.961773 40.321602
24.065376 16.078871 41.246929
24.671902 16.196251 42.174538
25.279921 16.313915 43.104439
25.889458 16.431889 44.036648
17.343983 14.779066 28.713379
17.936377 14.893719 29.616615
18.530104 15.008242 30.522175
19.125401 15.123446 31.429844
19.722284 15.239343 32.339649
20.320389 15.354712 33.251881
20.92034 15.471587 34.16608
21.521521 15.587944 35.082714
22.12405 15.704165 36.001694
22.728058 15.820675 36.922928
23.333698 15.937882 37.846371
23.940691 16.054964 38.772156
24.549334 16.172758 39.700172
25.159483 16.290842 40.630482
25.771297 16.409636 41.563049
26.38418 16.527464 42.498108
17.790186 14.866044 27.119846
18.385937 14.980952 28.025711
18.983271 15.096558 28.933681
19.582075 15.212446 29.843891
20.182356 15.328616 30.756346
20.784121 15.445083 31.671051
21.387373 15.56183 32.58802
21.991982 15.678451 33.507347
22.598495 15.796615 34.42868
23.206247 15.914231 35.352493
23.815367 16.031727 36.278675
24.426138 16.149925 37.207077
25.038286 16.268015 38.137859
25.652105 16.386799 39.070896
26.267609 16.506315 40.006191
18.240814 14.953877 25.510517
18.840078 15.069468 26.418896
19.440941 15.185754 27.329393
20.043167 15.301916 28.24226
20.647011 15.418778 29.157276
21.252348 15.535933 30.074554
21.859325 15.65379 30.994015
22.467546 15.771112 31.915966
23.077415 15.889143 32.840111
23.688805 16.007473 33.766556
24.301867 16.126501 34.69524
24.915874 16.244162 35.626575
25.532309 16.364639 36.559746
26.149691 16.48373 37.495583
26.768616 16.603121 38.433762
18.094484 14.926184 22.976624
18.695932 15.042583 23.885143
19.298872 15.159271 24.795918
19.903185 15.275845 25.709074
20.508997 15.392702 26.6245
21.116312 15.509842 27.5422
21.725136 15.627284 28.462175
22.335747 15.74585 29.38422
22.947754 15.864289 30.308689
23.561438 15.983452 31.235374
24.176514 16.102486 32.164482
24.793133 16.221827 33.095917
25.411304 16.341469 34.029694
26.031029 16.461401 34.965824
26.652161 16.581217 35.9044
27.274693 16.700905 36.845406
17.94706 14.898284 20.423712
18.550465 15.014677 21.332611
19.155487 15.131771 22.243626
19.762022 15.249159 23.156914
20.37007 15.366836 24.072485
20.979509 15.48439 24.990475
21.590469 15.602244 25.910753
22.202953 15.720385 26.833332
22.816969 15.838825 27.758213
23.432669 15.957986 28.685303
24.050058 16.077864 29.614613
24.668859 16.197622 30.546373
25.289375 16.318113 31.480385
25.911312 16.438473 32.41687
27.159264 16.678411 34.297295
27.786085 16.800116 35.240803
18.404015 14.986969 18.760685
19.011143 15.104471 19.671928
19.619793 15.222266 20.585457
20.229965 15.340358 21.50127
20.841669 15.458746 22.41938
21.454912 15.577432 23.3398
22.069561 15.695995 24.262669
22.685614 15.814441 25.187981
23.30335 15.933596 26.115492
23.922642 16.053051 27.045334
24.543642 16.173233 27.977402
25.166218 16.293728 28.911829
25.79052 16.41494 29.848515
27.672352 16.778749 32.673313
28.302711 16.900347 33.61977
28.934669 17.022249 34.568626
17.648626 14.841019 15.2603
18.256342 14.958636 16.169455
18.865585 15.076551 17.080898
19.476355 15.194756 17.994629
20.088665 15.31326 18.910658
20.702518 15.432065 19.829002
21.317917 15.551169 20.749653
21.934872 15.67058 21.67263
22.553389 15.790283 22.597948
23.173326 15.909863 23.525745
23.794832 16.029755 24.455883
24.417908 16.14994 25.388374
25.042568 16.270437 26.323236
25.668804 16.391237 27.26046
27.557739 16.757212 30.086008
28.190224 16.878815 31.032932
28.824821 17.002033 31.981956
29.461056 17.125574 32.933418
17.497597 14.811647 12.649408
18.107546 14.930092 13.558542
18.718916 15.048414 14.470165
19.331703 15.16662 15.384253
19.946159 15.285534 16.300476
20.562302 15.405181 17.218847
21.179878 15.524707 18.139717
21.799019 15.64453 19.062925
22.419729 15.764662 19.988466
23.042019 15.8851 20.916367
23.665892 16.005842 21.846626
24.291355 16.126898 22.779257
24.918264 16.247831 23.714407
25.546768 16.369066 24.651937
28.713783 16.980797 29.375393
29.352688 17.105661 30.326965
29.992378 17.228649 31.281551
17.345421 14.782048 10.018663
17.957499 14.900903 10.927935
18.571011 15.019642 11.839701
19.186071 15.138684 12.753767
19.802824 15.258445 13.669981
20.420885 15.377668 14.588881
21.040512 15.497191 15.510107
21.661848 15.617441 16.433502
22.284903 15.738428 17.359079
22.909416 15.859294 18.287197
23.535522 15.980471 19.217682
24.163378 16.102386 20.150387
24.792696 16.224184 21.085646
17.1922 14.752648 7.3676357
17.806303 14.8715 8.2772102
18.421968 14.990658 9.1890984
19.039202 15.110117 10.103308
19.658129 15.230295 11.019648
20.278509 15.350366 11.938519
20.900606 15.47117 12.859545
21.524166 15.591852 13.783123
22.14904 15.711982 14.709425
22.775644 15.832855 15.637901
23.404139 15.954899 16.568399
24.034258 16.077253 17.501308
24.665852 16.19949 18.436789
16.423546 14.605734 3.7879944
17.038027 14.723859 4.695816
17.654303 14.843136 5.6054974
18.272026 14.962288 6.5177135
18.891199 15.081323 7.4324589
19.512321 15.201934 8.3489017
20.134911 15.322427 9.2679062
20.759222 15.443659 10.189056
21.385006 15.564779 11.112768
22.0124 15.686199 12.038864
22.641405 15.807936 12.96734
23.271887 15.929556 13.898392
16.882442 14.694006 2.0038528
17.501127 14.814551 2.9131317
18.121048 14.934134 3.8254471
18.74255 15.054019 4.7400856
19.365639 15.174207 5.6570663
19.990322 15.294706 6.5763912
20.616606 15.415508 7.4980736
21.244772 15.537486 8.4217033
21.874561 15.659781 9.3477192
22.505838 15.781962 10.276335
23.138748 15.904448 11.207359
23.7733 16.027262 12.140785
17.346411 14.784463 0.20062256
17.968653 14.904896 1.1127548
18.592495 15.025631 2.0272331
19.217939 15.146687 2.9440575
19.84487 15.267619 3.8634872
20.473549 15.389297 4.7850494
21.103577 15.510422 5.7094421
21.735365 15.632294 6.6359863
22.368925 15.754906 7.5647144
23.004272 15.878286 8.4956341
23.641279 16.001972 9.4289913
19.068707 15.117664 0.21057892
19.698023 15.239467 1.1298256
20.329233 15.36244 2.0509758
20.961548 15.484005 2.9754677
21.595911 15.607197 3.9016495
22.231647 15.729825 4.8307114
22.868744 15.851908 5.7626286
20.818398 15.457384 0.21995163
21.454803 15.580153 1.1466713
22.092861 15.703234 2.0758095
22.73258 15.826635 3.0073662
23.374414 15.951682 3.9406548
22.595478 15.801609 0.2299614
23.239391 15.926229 1.1637878
23.884697 16.050306 2.1005516
24.400709 16.15086 0.24039841
25.052301 16.277386 1.1814308
26.235069 16.506168 0.25074005
20.066393 14.438114 68.790161
21.02354 14.623564 68.782707
21.984509 14.809045 68.775253
22.949327 14.995979 68.767746
23.918005 15.182942 68.760239
24.890587 15.371382 68.75267
19.106012 14.252796 67.888206
20.062862 14.437833 67.87896
21.02354 14.62396 67.869659
21.988066 14.810132 67.860359
22.95647 14.997757 67.850983
23.92877 15.185788 67.841583
24.904984 15.374574 67.832146
25.885143 15.564118 67.822678
19.09893 14.251828 66.972145
20.059307 14.437902 66.961006
21.02354 14.624727 66.949821
21.991646 14.810872 66.938683
22.963667 14.999562 66.927391
23.939613 15.188654 66.916069
24.919498 15.378149 66.904724
25.903366 15.568413 66.893341
18.131735 14.06519 66.062241
19.091791 14.251213 66.049255
20.055729 14.437616 66.036247
21.02354 14.62514 66.023163
21.995256 14.811976 66.010117
22.970905 15.001014 65.996918
23.950521 15.190816 65.983673
24.934132 15.381752 65.970345
25.921665 15.571648 65.957085
18.121 14.063528 65.134438
19.084618 14.249874 65.11956
20.05212 14.43698 65.104622
21.023542 14.624836 65.08963
21.998892 14.813457 65.07457
22.978199 15.002477 65.059479
23.961506 15.192997 65.044273
24.948807 15.383924 65.02903
25.940145 15.575635 65.013725
18.110197 14.061485 64.199753
19.077387 14.248531 64.18293
20.048496 14.435968 64.166077
21.02354 14.624887 64.149078
22.002558 14.814579 64.132019
22.985569 15.005043 64.114899
23.972595 15.19592 64.097733
24.963675 15.387948 64.08046
19.070097 14.247534 63.239246
20.044834 14.436034 63.220375
21.02354 14.626027 63.201355
22.006254 14.816437 63.182293
22.992973 15.006536 63.163261
23.98377 15.198871 63.144009
24.978621 15.391255 63.124752
25.977564 15.584438 63.105415
19.062744 14.246532 62.288467
20.041138 14.436102 62.267544
21.023539 14.626089 62.246574
22.00997 14.817216 62.225483
23.000463 15.009129 62.204308
23.995008 15.2011 62.183121
24.993683 15.3946 62.161766
19.055328 14.246243 61.330421
20.03742 14.435806 61.307541
21.02354 14.626875 61.284477
22.013718 14.818372 61.261364
23.007977 15.010647 61.238159
24.006344 15.203722 61.214859
25.008841 15.397589 61.19146
19.047869 14.24523 60.365189
20.033669 14.436239 60.340145
21.023537 14.627674 60.315048
22.017502 14.819895 60.289848
23.015572 15.012914 60.264542
24.01778 15.206727 60.239136
25.024147 15.401354 60.213615
18.054869 14.053629 59.419598
19.040352 14.244207 59.392616
20.0299 14.435575 59.36552
21.02354 14.628103 59.338257
22.021309 14.821064 59.310936
23.023222 15.015194 59.283451
16.07733 13.671244 58.499638
17.058424 13.860983 58.470764
18.043577 14.05114 58.441833
19.032793 14.242443 58.412724
20.026104 14.434542 58.383492
21.023542 14.627804 58.354088
22.025127 14.821507 58.324612
23.030905 15.01638 58.29496
15.07773 13.478369 57.549446
16.058462 13.668399 57.518509
17.04327 13.858854 57.487499
18.032154 14.050095 57.456367
19.025143 14.24214 57.425095
20.022257 14.435345 57.393639
21.02354 14.628613 57.362175
22.028997 14.82306 57.330513
23.038654 15.017952 57.298782
14.074649 13.284809 56.59594
15.055044 13.474413 56.563034
16.039474 13.665165 56.52993
17.028017 13.856344 56.49675
18.02067 14.048311 56.463436
19.01745 14.241093 56.429981
20.018406 14.434668 56.396385
21.023542 14.629051 56.362652
22.032892 14.824253 56.328773
23.046476 15.019905 56.294823
24.064352 15.217505 56.260529
13.068048 13.090582 55.639088
14.048082 13.280111 55.604149
15.03218 13.470427 55.569061
16.020359 13.661539 55.533829
17.012665 13.853444 55.498447
18.009102 14.046152 55.462921
19.009714 14.239662 55.427246
20.014511 14.434362 55.39135
21.023539 14.629499 55.355373
22.036814 14.825462 55.319244
23.054371 15.022627 55.282894
24.076212 15.219872 55.246529
13.037553 13.085485 54.641823
14.021276 13.275743 54.604671
15.009108 13.466783 54.567371
16.001038 13.658985 54.529839
16.997137 13.851629 54.492226
17.997412 14.045082 54.454453
19.001884 14.239344 54.416519
20.01058 14.434795 54.378357
21.023544 14.630693 54.340103
22.040781 14.827431 54.301689
23.062323 15.02499 54.263115
24.088202 15.223394 54.224373
25.118443 15.422638 54.185471
13.006848 13.079995 53.636955
13.994307 13.270962 53.597572
14.985888 13.462738 53.558014
15.981646 13.654942 53.518372
16.981544 13.84869 53.478416
17.985668 14.042886 53.438362
18.994019 14.238271 53.398064
20.006634 14.434109 53.357674
21.023537 14.630777 53.317108
22.044764 14.828656 53.276299
23.070335 15.027378 53.235313
24.100264 15.226189 53.194309
25.134604 15.426606 53.152973
12.975873 13.074823 52.624252
13.967087 13.266524 52.582588
14.962467 13.45903 52.540756
15.962006 13.65271 52.498665
16.965797 13.846472 52.456558
17.973816 14.04105 52.414268
18.986097 14.236444 52.371807
20.002649 14.43342 52.329002
21.023537 14.631613 52.285931
22.048782 14.830275 52.242756
23.078396 15.029016 52.199566
24.112411 15.229005 52.156105
25.150888 15.430216 52.112381
12.944695 13.069246 51.603775
13.939688 13.261681 51.559807
14.938854 13.455297 51.515572
15.942272 13.649351 51.471233
16.949924 13.844234 51.426704
17.961845 14.040314 51.381908
18.978081 14.236485 51.337086
19.998631 14.434229 51.291908
21.02354 14.632452 51.246616
22.052834 14.831137 51.201225
23.086521 15.030676 51.155632
24.124651 15.231448 51.10976
25.167267 15.433472 51.063602
12.913239 13.063993 50.575272
13.912056 13.257166 50.528965
14.915091 13.451159 50.48246
15.922377 13.645973 50.435757
16.933947 13.841606 50.388859
17.949808 14.038448 50.341671
18.970013 14.235765 50.294369
19.994581 14.433919 50.246864
21.023542 14.632921 50.199162
22.056917 14.832774 50.151253
23.094723 15.033113 50.103226
24.137012 15.234691 50.054905
25.183804 15.43714 50.006371
12.881636 13.05759 49.539009
13.884279 13.251513 49.490322
14.891188 13.446242 49.441433
15.902334 13.642557 49.392147
16.917837 13.838959 49.342834
17.937687 14.0362 49.29332
18.961893 14.234663 49.243492
19.990505 14.433599 49.193546
21.02354 14.63339 49.143387
22.061026 14.834047 49.09301
23.102993 15.035569 49.042416
24.149471 15.237959 48.9916
25.200491 15.441223 48.940571
12.849718 13.051881 48.494442
13.856234 13.246548 48.443344
14.867022 13.44241 48.391933
15.882153 13.638741 48.340397
16.901606 13.836288 48.288544
17.925461 14.034306 48.236568
18.953716 14.233172 48.184368
19.986401 14.432896 48.131943
21.023539 14.633869 48.079189
22.065174 14.835322 48.02631
23.111324 15.037652 47.973202
24.162016 15.240864 47.919861
25.217304 15.445347 47.866188
12.817515 13.046502 47.441547
13.827944 13.241919 47.388004
14.842686 13.438177 47.334229
15.861787 13.635277 47.28022
16.885269 13.83322 47.225983
17.913136 14.032396 47.17141
18.945465 14.232053 47.116703
19.982252 14.432575 47.061756
21.02354 14.633961 47.006577
22.069347 14.836226 46.951157
23.11972 15.039757 46.895386
24.174664 15.243791 46.839481
25.234247 15.449108 46.783222
12.785064 13.041079 46.380329
13.799454 13.236882 46.324406
14.818165 13.433902 46.268135
15.841259 13.631779 46.211617
16.868771 13.830506 46.154858
17.90073 14.030087 46.097855
18.937149 14.23092 46.040493
19.978081 14.432244 45.982994
21.02354 14.634441 45.92524
22.073565 14.837521 45.867237
23.12817 15.041489 45.808983
24.187418 15.246745 45.750359
25.251307 15.452501 45.691589
12.75242 13.034857 45.310905
13.770735 13.231802 45.25235
14.793467 13.429226 45.193653
15.820597 13.627873 45.13459
16.852165 13.827394 45.075272
17.88821 14.028149 45.015579
18.928772 14.229395 44.95575
19.973871 14.431526 44.895649
21.02354 14.634932 44.835175
22.077806 14.838835 44.774548
23.136703 15.043625 44.713661
24.200256 15.249332 44.6525
25.268513 15.456326 44.590958
12.719475 13.028967 44.232857
13.741788 13.226686 44.171738
14.76855 13.424885 44.110474
15.799734 13.624327 44.04882
16.835407 13.824631 43.986904
17.875584 14.026194 43.924595
18.920326 14.228248 43.862137
19.969625 14.431192 43.799404
21.02354 14.635027 43.736393
22.082088 14.84015 43.672989
23.145306 15.045783 43.609421
24.213211 15.252328 43.545574
25.285856 15.459778 43.481449
12.686271 13.023029 43.146187
13.712576 13.221907 43.082344
14.74338 13.421274 43.018345
15.778694 13.621124 42.954189
16.818481 13.822618 42.889507
17.862864 14.024214 42.824795
18.911802 14.227087 42.759666
19.965345 14.430857 42.694256
21.023539 14.635521 42.628555
22.086397 14.841084 42.562569
23.153976 15.047956 42.496159
24.22628 15.255343 42.429585
25.303347 15.463659 42.362713
26.385288 15.674104 42.295158
12.652803 13.017043 42.050793
13.683195 13.216326 41.984428
14.718056 13.416868 41.917648
15.757457 13.618279 41.850578
16.801456 13.819814 41.783466
17.850021 14.022618 41.715931
18.903202 14.226315 41.648098
19.961027 14.43091 41.579967
21.023539 14.636405 41.511536
22.090759 14.842821 41.442799
23.162722 15.050139 41.37376
24.239454 15.258397 41.304409
25.320992 15.467568 41.234756
26.407412 15.678493 41.164516
13.653511 13.211468 40.877388
14.69253 13.412422 40.808041
15.736088 13.614651 40.738255
16.78429 13.816991 40.668427
17.83709 14.020613 40.59816
18.894543 14.225135 40.52758
19.956684 14.430567 40.456684
21.023539 14.636911 40.385475
22.095148 14.84417 40.313953
23.171534 15.052355 40.242111
24.252747 15.261866 40.169807
25.338776 15.471523 40.097458
26.429775 15.683723 40.024227
13.623619 13.206186 39.761497
14.666771 13.408328 39.689274
15.71455 13.610985 39.616867
16.766964 13.814532 39.544144
17.824034 14.018988 39.471096
18.885805 14.223953 39.397865
19.952295 14.430226 39.324165
21.023539 14.637413 39.250141
22.099571 14.845529 39.175785
23.180429 15.054976 39.100956
24.26614 15.264967 39.025928
25.356731 15.475899 38.950565
26.452293 15.688601 38.874569
13.593458 13.201241 38.636375
14.640794 13.404208 38.561363
15.692808 13.607682 38.486164
16.74951 13.811669 38.410778
17.81089 14.016949 38.334911
18.87701 14.222754 38.25885
19.947876 14.429878 38.182304
21.023542 14.638318 38.10527
22.104042 14.847699 38.027885
23.189398 15.057629 37.950302
24.279663 15.268497 37.872372
25.374834 15.48032 37.794086
26.474998 15.693509 37.715298
27.580133 15.907263 37.636299
13.563072 13.195873 37.50219
14.614674 13.399264 37.4245
15.670916 13.603959 37.346313
16.731937 13.808384 37.26823
17.797647 14.014506 37.189499
18.868111 14.222343 37.110111
19.943407 14.430319 37.030674
21.02354 14.639634 36.950722
22.108543 14.849493 36.870564
23.198437 15.059896 36.790195
24.29327 15.271655 36.709312
25.393055 15.483959 36.62822
26.497902 15.698462 36.546284
27.607746 15.91312 36.464294
14.588324 13.394291 36.278286
15.648861 13.599813 36.197216
16.714184 13.805858 36.11594
17.784275 14.012834 36.034294
18.859173 14.220733 35.952286
19.938917 14.429579 35.869907
21.023542 14.639755 35.786999
22.113081 14.850492 35.703873
23.207561 15.06258 35.620209
24.307016 15.275239 35.536324
25.411482 15.488863 35.452061
26.520994 15.703454 35.367413
27.63559 15.919041 35.282372
28.755287 16.135612 35.196941
14.561733 13.389662 35.122452
15.626608 13.596021 35.038452
16.696274 13.803316 34.954071
17.770781 14.011148 34.869469
18.850136 14.220305 34.784328
19.93438 14.430021 34.698963
21.023539 14.640688 34.613209
22.117653 14.852308 34.527065
23.216734 15.064483 34.440697
24.320843 15.278044 34.353767
25.430016 15.492571 34.266441
27.663656 15.925003 34.090416
28.788157 16.142094 34.002045
14.534894 13.385389 33.956863
15.604164 13.592208 33.870049
16.678246 13.800348 33.782677
17.757179 14.00944 33.694908
18.841028 14.21908 33.606907
19.929806 14.429667 33.518509
21.02354 14.641216 33.429707
22.122255 14.853327 33.340672
23.226002 15.066813 33.251057
24.334801 15.280862 33.161205
25.448696 15.496307 33.07077
27.691967 15.931018 32.88829
28.821404 16.149883 32.796417
14.507832 13.381081 32.781551
15.581512 13.58875 32.691715
16.660057 13.797359 32.601475
17.743483 14.007318 32.510651
18.83186 14.217436 32.419758
19.925201 14.429312 32.328106
21.023542 14.641347 32.236385
22.126905 14.854353 32.144241
23.23534 15.068742 32.051502
24.348879 15.284122 31.958332
25.467577 15.500906 31.864555
28.854877 16.156908 31.580784
14.480601 13.375947 31.596745
15.558687 13.584871 31.503668
16.641716 13.794351 31.410343
17.729662 14.005187 31.316416
18.822599 14.216588 31.222237
19.920567 14.427729 31.128174
21.023539 14.641481 31.032946
22.131601 14.855797 30.937469
23.24477 15.071111 30.841547
24.363098 15.287822 30.745001
25.486603 15.505136 30.648188
16.62326 13.790506 30.20953
17.715769 14.001822 30.112635
18.813295 14.214108 30.015293
19.915873 14.427775 29.91732
21.023539 14.642017 29.819084
22.136326 14.857258 29.72039
23.25428 15.073904 29.62105
24.377424 15.291144 29.521439
25.505787 15.509399 29.42136
17.701704 14.000054 28.897888
18.803877 14.213238 28.797337
19.91115 14.427404 28.69632
21.023535 14.642565 28.594833
22.141104 14.85914 28.49268
23.26387 15.076311 28.390247
24.391869 15.294496 28.287334
25.525154 15.514113 28.183746
17.687531 13.99786 27.672968
18.79438 14.212357 27.568951
19.90637 14.427445 27.464649
21.02354 14.643533 27.359861
22.145916 14.860627 27.254585
23.273548 15.07915 27.148617
24.40645 15.298285 27.042351
25.544687 15.518448 26.935589
17.673227 13.996054 26.437347
18.784803 14.211059 26.330208
19.901564 14.427069 26.222572
21.02354 14.644498 26.114227
22.15077 14.862543 26.005573
23.283295 15.081606 25.896418
24.421154 15.30169 25.786747
17.658802 13.993826 25.191288
18.775141 14.210168 25.080568
19.896709 14.427104 24.969542
21.023542 14.645075 24.85799
22.15567 14.864052 24.74592
23.293133 15.084071 24.633316
24.435986 15.305126 24.520184
17.644264 13.991576 23.934462
18.765411 14.208436 23.820526
19.891811 14.42673 23.705837
21.023542 14.645639 23.590824
22.160612 14.865583 23.475269
23.303066 15.08656 23.359169
24.450939 15.308596 23.242516
17.629604 13.989309 22.666725
18.755583 14.207109 22.549307
19.886879 14.426353 22.431108
21.023544 14.646212 22.31258
22.165592 14.867115 22.193489
23.313086 15.089508 22.073597
24.46604 15.312522 21.953369
17.614801 13.987022 21.387932
18.74567 14.205769 21.266977
19.881903 14.425966 21.145218
21.023539 14.646793 21.023111
22.170624 14.869097 20.900188
23.323196 15.092468 20.776676
24.481281 15.316479 20.652809
17.59988 13.984709 20.097946
18.735666 14.204827 19.973158
19.876869 14.426 19.847773
21.023539 14.648226 19.721786
22.175703 14.871098 19.595442
23.333387 15.095028 19.468491
24.496658 15.320477 19.340681
17.584789 13.983219 18.796122
18.725559 14.204308 18.667671
19.871803 14.426029 18.538849
21.02354 14.648823 18.409407
22.180819 14.873111 18.279095
23.343679 15.098045 18.148411
18.715384 14.202942 17.351099
19.866693 14.425641 17.218548
21.02354 14.649413 17.085352
22.185966 14.873842 16.951771
23.354027 15.099787 16.817286
17.55423 13.979776 16.158009
18.705105 14.201983 16.022564
19.861526 14.425676 15.886211
21.02355 14.650021 15.74946
22.191181 14.875454 15.612047
23.364492 15.102422 15.473698
17.538786 13.976975 14.821949
18.694738 14.20101 14.682146
19.856318 14.425705 14.541933
21.02354 14.651489 14.401037
22.196451 14.878382 14.259453
23.375088 15.106383 14.117178
17.523188 13.974564 13.473673
18.684301 14.199181 13.330231
19.851072 14.424876 13.186096
21.023542 14.651682 13.041254
22.201746 14.879595 12.895704
23.385733 15.108624 12.749443
17.50746 13.971714 12.113544
18.673769 14.197321 11.966145
19.845785 14.424038 11.818022
21.023539 14.651872 11.669167
22.207088 14.880813 11.519588
23.396477 15.110893 11.369267
17.491596 13.968831 10.74115
18.663136 14.195461 10.589714
19.840435 14.423191 10.437538
21.02354 14.652052 10.284611
22.212486 14.882047 10.13093
17.475573 13.966357 9.3560143
18.652407 14.194005 9.2004795
19.835051 14.422778 9.0441818
21.023537 14.652682 8.8871059
22.217934 14.883735 8.72925
17.459379 13.964293 7.9579468
18.64155 14.192978 7.7982464
19.829586 14.423244 7.6374416
21.023542 14.654203 7.4761505
22.223448 14.886769 7.3137379
17.443043 13.962213 6.5470638
18.6306 14.192388 6.382803
19.824093 14.422818 6.2183628
21.023537 14.654846 6.0527802
22.228994 14.888044 5.8863678
16.239519 13.729595 5.2912426
17.426573 13.959681 5.1235046
18.619574 14.190454 4.9552536
19.818546 14.422838 4.7858353
21.02354 14.655952 4.6158905
22.234596 14.890221 4.4450951
16.217468 13.72598 3.8588943
17.40996 13.956665 3.6871185
18.60845 14.188519 3.5144844
19.812958 14.421975 3.3406525
21.02354 14.656162 3.166275
22.24025 14.891987 2.9906807
23.463125 15.128549 2.8145332
24.692234 15.366773 2.6371498
17.393179 13.954525 2.2367363
18.597185 14.187891 2.0593033
19.807293 14.42199 1.8813171
21.023544 14.656372 1.7031136
22.245945 14.893299 1.5229759
23.474617 15.131892 1.3415718
24.709545 15.371249 1.159584
25.950714 15.609993 0.97806549
17.376242 13.951913 0.77315521
27.802607 16.648106 0.80841064
26.942524 16.482456 0.74457932
26.085991 16.315712 0.68032455
25.233212 16.150719 0.61675262
24.384109 15.987189 0.55373764
23.538616 15.824355 0.49098969
22.696705 15.662219 0.42851639
21.858349 15.500762 0.36629868
