# .PCD v0.7 - Point Cloud Data file format
VERSION 0.7
FIELDS x y z
SIZE 4 4 4
TYPE F F F
COUNT 1 1 1
WIDTH 1611
HEIGHT 1
VIEWPOINT 0 0 0 1 0 0 0
POINTS 1611
DATA ascii
12.658995 9.1045456 76.265457
12.494984 8.9630318 77.391434
9.0031185 4.4438314 0.11441422
9.1013737 4.5267658 1.2102127
10.765696 5.9315505 1.618969
13.746458 8.4474888 5.1374931
13.521251 8.2574005 6.428566
13.296881 8.0680199 7.7129574
13.074039 7.8799286 8.9904404
12.801819 7.6501579 10.277737
12.506937 7.4012604 11.564377
12.162951 7.1109171 12.857288
11.799821 6.8044128 14.145863
11.584458 6.6226349 15.384224
11.402663 6.4691882 16.607882
11.21233 6.3085356 17.828436
11.014921 6.1419125 19.045187
10.848155 6.0011506 20.249802
10.911936 6.0549855 21.403811
10.992382 6.1228876 22.556549
11.071988 6.1900792 23.711725
11.139111 6.2467351 24.871107
11.206665 6.3037548 26.032345
11.27434 6.3608761 27.195484
11.341793 6.4178114 28.360563
11.409685 6.4751158 29.527523
11.477698 6.5325222 30.696405
11.545482 6.589736 31.867229
11.701937 6.7217932 33.034939
11.894876 6.8846459 34.205536
12.088713 7.048255 35.381596
12.275249 7.2057028 36.563278
12.269785 7.2010903 37.750248
8.7772055 4.253149 38.887516
8.7295408 4.2129164 40.023438
12.356331 7.2741404 41.314636
12.402246 7.3128953 42.505375
12.448212 7.3516922 43.697418
12.701221 7.5652485 44.908424
11.101877 6.2153082 45.942368
11.287024 6.371582 47.133713
11.473004 6.5285602 48.330437
11.659824 6.6862483 49.532555
11.795085 6.800415 50.731922
11.901992 6.8906517 51.930313
12.010187 6.9819746 53.131966
12.156476 7.1054506 54.344276
12.185115 7.1296234 55.535667
12.153069 7.1025758 56.714081
12.042805 7.0095057 57.872681
11.854257 6.8503594 59.008125
11.744774 6.7579503 60.159565
12.071362 7.0336103 61.431812
12.7565 7.6119061 62.820335
13.412249 8.1653967 64.219131
15.607645 10.01844 66.139755
16.083691 10.42025 67.53643
16.34717 10.642643 68.871124
14.814771 9.3492069 69.54982
14.522922 9.10287 70.660912
14.344525 8.9522934 71.808846
13.981762 8.6460991 72.875732
13.791782 8.4857454 74.005974
13.857027 8.5408163 75.24324
13.630171 8.3493347 76.349533
13.655241 8.3704967 77.567528
10.042527 3.8233862 -0.022346497
10.250605 3.995182 1.0285301
11.353177 4.9055061 1.6948738
13.132156 6.3742962 2.1065788
14.141198 7.2073984 2.8827248
14.062693 7.142581 4.1160088
13.837889 6.9569745 5.4026794
13.578977 6.7432075 6.6955147
13.281377 6.4974985 7.994669
13.008253 6.2719975 9.2771873
12.750588 6.0592604 10.546991
12.684875 6.0050049 11.750099
12.538429 5.8840942 12.97522
12.354477 5.7322164 14.206779
12.164572 5.5754232 15.434753
11.964764 5.4104543 16.659889
11.765586 5.246006 17.879246
11.636992 5.1398344 19.077091
11.672692 5.1693101 20.236626
11.78198 5.259541 21.382666
11.902967 5.3594332 22.529634
12.024307 5.4596157 23.679947
12.145661 5.5598102 24.833679
12.26771 5.6605778 25.990732
12.390117 5.7616415 27.151173
12.508454 5.8593459 28.315519
12.610049 5.9432254 29.484852
12.711902 6.027319 30.657024
12.814003 6.1116176 31.832031
12.878535 6.1648974 33.012047
12.974499 6.2441282 34.192547
13.088276 6.3380661 35.375244
13.196833 6.4276962 36.561218
10.608766 4.2908931 37.750256
13.245317 6.4677267 38.939968
10.126337 3.8925824 40.041859
13.294213 6.5080967 41.321465
13.327883 6.5358949 42.513763
13.361575 6.5637131 43.70702
13.499761 6.6778045 44.910042
12.496195 5.8492236 46.004433
12.714299 6.0292983 47.208172
12.933888 6.2105989 48.418228
12.990336 6.2572045 49.611507
13.059284 6.3141308 50.808315
13.158425 6.3959846 52.012161
13.281029 6.49721 53.223091
13.43705 6.6260271 54.444061
13.515453 6.6907606 55.653038
13.482681 6.6637025 56.839176
13.262302 6.4817495 57.979481
13.027555 6.2879333 59.109943
12.833214 6.1274791 60.24461
13.028595 6.2887926 61.483543
13.350806 6.554822 62.765465
13.675139 6.8226032 64.057121
14.184401 7.2430677 65.417793
19.62466 11.734745 68.458939
16.770933 9.378603 71.212746
15.63684 8.4422541 72.005035
15.419357 8.2626934 73.139633
15.27448 8.1430769 74.298767
15.13009 8.0238628 75.454025
11.774094 3.7512436 0.68308258
12.233146 4.1219516 1.6429062
13.377625 5.0461755 2.3286858
14.314856 5.8030353 3.1302338
14.141953 5.6634092 4.3915672
13.879372 5.4513617 5.6818542
13.618402 5.2406149 6.9642258
13.40347 5.0670471 8.2232666
13.357308 5.0297699 9.419796
13.31154 4.9928083 10.614922
13.26548 4.9556131 11.808857
13.12143 4.8392859 13.030207
13.038653 4.772439 14.230448
13.068394 4.7964563 15.398558
13.098154 4.820488 16.567488
13.128279 4.8448162 17.737162
13.158085 4.8688855 18.907751
13.191339 4.8957405 20.078451
13.286098 4.9722624 21.23806
13.410015 5.0723319 22.395031
13.530848 5.1699109 23.555973
13.633996 5.2532082 24.723003
13.737396 5.3367081 25.892872
13.84105 5.4204149 27.065598
13.944956 5.5043235 28.241184
14.049115 5.588438 29.419645
14.153531 5.6727581 30.60099
14.258202 5.7572851 31.785234
14.32507 5.811285 32.97451
14.38323 5.8582516 34.166012
14.459832 5.9201121 35.358616
12.841951 4.6135921 36.577007
11.734989 3.7196655 37.750248
11.527494 3.552103 38.905163
14.57659 6.0143995 40.145142
14.615225 6.0455999 41.3442
14.653899 6.0768309 42.544342
14.687985 6.1043577 43.745247
14.821751 6.2123795 44.955444
14.023575 5.567812 46.078362
14.229372 5.734004 47.291061
14.258902 5.7578506 48.487366
14.288805 5.7819991 49.684551
14.361365 5.8405952 50.889122
14.455591 5.9166875 52.099335
14.567025 6.0066757 53.3153
14.743788 6.1494203 54.547138
14.863822 6.2463531 55.772034
14.735607 6.1428137 56.944866
14.504025 5.9558001 58.089611
14.347974 5.8297806 59.246853
14.295844 5.7876835 60.427292
13.80798 5.3937082 61.484699
13.902388 5.4699478 62.699085
14.066263 5.6022854 63.937416
14.407922 5.8781915 65.237366
18.042185 8.8130407 72.632416
17.798954 8.6166191 73.7798
13.599464 3.7182426 0.21032715
13.653378 3.7608232 1.3603439
13.982773 4.0209761 2.3976021
14.51901 4.4444904 3.361042
14.225842 4.2129488 4.6603584
14.074629 4.093523 5.8985786
14.028161 4.0568228 7.0949745
14.114554 4.1250563 8.2441635
14.227587 4.2143278 9.3869019
14.346154 4.307971 10.53101
14.476955 4.4112768 11.674683
14.558302 4.475523 12.836315
14.588496 4.4993706 14.014341
14.618709 4.5232315 15.193199
14.648941 4.5471091 16.372892
14.679196 4.5710044 17.553413
14.994635 4.8201342 18.671688
15.521824 5.2365046 19.754776
15.78676 5.4457474 20.903202
15.897749 5.5334048 22.086615
16.008657 5.6209998 23.273109
16.120213 5.7091036 24.462578
16.217464 5.7859135 25.657106
16.245193 5.8078136 26.862968
16.272928 5.8297181 28.069599
16.300688 5.8516421 29.276989
16.328457 5.8735743 30.485153
16.356251 5.8955245 31.694088
16.331751 5.8761759 32.906673
16.29192 5.844717 34.119221
13.675716 3.7784662 35.401897
13.415941 3.5732975 36.579666
13.539802 3.6711216 37.750259
13.08683 3.3133698 38.916294
13.585743 3.707406 40.096123
16.26417 5.8228002 41.380135
16.201424 5.7732449 42.586624
16.138769 5.7237606 43.791389
16.097664 5.6912956 44.996208
15.512492 5.2291327 46.147236
15.54264 5.252943 47.35014
15.595457 5.2946577 48.556698
15.820714 5.4725642 49.788548
15.907522 5.5411234 51.005585
16.008297 5.6207137 52.227333
16.105301 5.6973281 53.451195
16.066763 5.6668911 54.651497
16.22987 5.7957096 55.892548
16.050051 5.6536913 57.062263
15.889788 5.5271168 58.231594
15.764016 5.4277844 59.405083
15.233537 5.0088167 60.4688
14.709121 4.5946379 61.519516
14.620112 4.5243406 62.682137
14.715468 4.5996523 63.898369
15.3449 5.0967703 65.287056
15.823706 3.9560289 -0.42883682
15.291203 3.5447512 0.9904213
15.630743 3.8069954 2.0366631
15.838397 3.9673767 3.1446152
15.272105 3.5300016 4.5551529
15.387184 3.6188831 5.6981201
15.50221 3.7077217 6.844265
15.627889 3.8047905 7.9899063
15.761435 3.9079337 9.1364117
15.895393 4.0113974 10.286442
16.029766 4.1151786 11.440018
16.193798 4.241869 12.588743
16.563406 4.5273352 13.685631
16.935783 4.8149409 14.791931
17.339499 5.126749 15.900702
17.891953 5.5534358 16.985891
14.332956 2.8046532 36.577576
13.84959 2.4313259 37.750252
13.804118 2.396204 38.915672
14.132755 2.6500282 40.090111
14.308047 2.7854137 41.26725
14.508379 2.9401398 42.450554
14.755741 3.1311893 43.642578
15.21239 3.483881 44.858582
15.653923 3.8248978 46.085648
15.939542 4.045495 47.30772
16.182968 4.2335052 48.532425
16.399796 4.4009705 49.760147
16.536827 4.5068069 50.981789
16.867512 4.7622113 52.239021
17.035812 4.8921971 53.476395
17.012627 4.8742895 54.681648
16.964445 4.8370771 55.881134
16.426662 4.4217215 56.97197
16.266096 4.2977095 58.135933
16.006739 4.0973935 59.27113
15.748919 3.8982677 60.399624
15.492975 3.7005901 61.521561
15.425493 3.6484709 62.690712
15.811528 3.9466233 63.994709
17.028452 4.8865137 65.571106
17.434053 3.6802406 0.41447067
17.271963 3.557827 1.6848869
17.687729 3.8718195 2.7233391
16.792147 3.1954613 4.2716789
16.925167 3.2959213 5.4185677
17.134232 3.4538097 6.5422287
17.545387 3.7643204 7.602953
17.961502 4.078578 8.6732349
18.403347 4.4122648 9.7467842
18.849976 4.7495656 10.830902
19.301075 5.0902443 11.925867
16.170563 2.7260323 35.375805
15.776264 2.4282513 36.56839
15.287233 2.0589285 37.750252
15.250786 2.0314026 38.924988
15.67215 2.3496227 40.11116
15.424887 2.1628857 41.281551
15.268305 2.044632 42.450142
15.369002 2.1206818 43.631947
15.466058 2.1939783 44.816189
15.603935 2.2981071 46.00695
15.817419 2.4593325 47.209671
15.947865 2.557847 48.408043
16.109421 2.6798573 49.614178
16.257591 2.7917585 50.822704
16.314632 2.834837 52.020405
16.470345 2.9524317 53.237072
16.546061 3.009614 54.442757
16.491966 2.9687614 55.624069
16.349463 2.8611393 56.784683
16.360245 2.8692827 57.97683
16.426416 2.9192572 59.182808
16.468182 2.950799 60.384274
16.509991 2.9823732 61.586891
16.579639 3.0349722 62.798588
17.336575 3.6066208 64.217484
19.803726 3.9371529 -0.24599075
19.984909 4.0709348 0.90653229
18.902824 3.2719412 2.5570259
19.326471 3.5847549 3.6109276
19.754505 3.9008093 4.674633
20.208336 4.2359095 5.7408409
17.592278 2.3042526 35.358414
17.36285 2.1348476 36.557426
16.989113 1.8588848 44.87706
16.837616 1.7470236 46.050587
16.718594 1.6591406 47.223534
16.654716 1.6119738 48.39996
16.788671 1.7108831 49.601288
16.923042 1.8101006 50.806286
17.005009 1.8706245 52.006439
17.033577 1.8917179 53.199448
17.177402 1.9979153 54.414948
17.473398 2.2164755 55.665047
17.443821 2.1946354 56.853001
17.511768 2.2448082 58.062469
17.582754 2.2972202 59.274498
17.653856 2.3497229 60.488476
17.725801 2.4028444 61.704594
17.830267 2.4799805 62.931835
19.407635 3.6446848 64.598045
19.268063 2.0445042 34.126686
19.032732 1.8746309 35.34082
18.411242 1.4260101 49.714478
18.287155 1.3364391 50.892693
18.183281 1.2614574 52.070831
18.103872 1.2041378 53.250431
18.307816 1.3513527 54.480854
18.60544 1.5661917 55.735462
18.625128 1.5804043 56.938679
18.692432 1.6289873 58.153225
18.840784 1.7360725 59.389023
19.043604 1.8824787 60.642597
19.337845 2.0948753 61.925976
21.468987 2.1262112 30.391071
21.233578 1.9601088 31.633171
20.979183 1.780611 32.870041
20.737371 1.6099892 34.099693
20.020632 1.1042633 53.446091
23.196724 1.8364983 30.318174
22.946533 1.6639614 31.573263
22.696466 1.4915085 32.821777
25.250788 1.7376032 27.711329
24.990582 1.5622463 28.989878
24.73177 1.3878279 30.261555
24.47435 1.2143478 31.526403
27.679699 1.8471031 24.994123
27.089842 1.4586945 26.338184
26.821907 1.2822628 27.633827
26.555431 1.1067953 28.922428
26.290388 0.93226814 30.204052
28.691895 0.99637699 26.249153
28.417471 0.81983852 27.555128
28.144558 0.64427376 28.853937
27.873131 0.46966457 30.145662
29.758091 0.17424202 28.784416
9.0526066 21.019569 0.43321228
8.7358017 19.818867 0.50609589
9.6935806 20.175068 1.5031281
19.963913 27.740614 54.796051
9.1694918 18.743557 -0.45901489
8.4443617 18.635841 0.5775795
9.8612385 19.100407 1.5609589
13.804341 20.24584 2.5519028
14.998963 20.65871 3.6318398
14.370158 20.581783 4.7258759
14.449756 20.696295 5.8280869
14.530422 20.81184 6.9391041
14.611311 20.928196 8.0590172
18.220442 25.653011 52.500549
18.157837 25.757875 53.941929
18.477097 25.981434 55.57122
18.633978 26.156311 57.141846
19.159672 26.44722 58.910454
9.0269518 17.604771 -0.38917542
8.5406027 17.562263 0.63666153
10.176316 18.063908 1.6157684
13.907419 19.108046 2.6127243
15.089783 19.500793 3.6926346
13.946281 19.293608 4.7802849
14.023753 19.402369 5.8763103
14.102262 19.5121 6.9810524
14.177593 19.621716 8.09445
14.251806 19.731749 9.216589
14.327042 19.84277 10.347664
14.402452 19.954561 11.487719
14.478462 20.067247 12.636898
14.376841 20.133453 13.778481
14.261786 20.196514 14.924057
17.658821 23.860397 49.336918
16.808361 23.727787 50.411091
17.088966 23.926674 51.972343
17.658508 24.212252 53.682892
19.198891 24.787388 55.873516
18.218357 24.617582 56.903114
17.863476 24.633142 58.226826
17.969349 24.786766 59.786285
12.768527 17.502266 0.57220078
13.366668 17.730862 1.6136513
14.01697 17.973768 2.6733665
15.05647 18.314445 3.7532654
13.943934 18.123566 4.8384819
13.915465 18.201187 5.9305172
13.886824 18.279268 7.0290108
13.858017 18.357811 8.1340122
13.829032 18.436821 9.2455826
13.799866 18.5163 10.363783
13.865469 18.620264 11.49563
13.939243 18.726982 12.636959
13.828978 18.787556 13.769888
13.713505 18.8472 14.907434
13.599255 18.907551 16.050207
13.485755 18.968496 17.198252
13.371752 19.02972 18.351469
13.257663 19.091328 19.509953
13.111274 19.144966 20.668571
13.141617 19.245007 21.862274
13.144488 19.338543 23.059647
13.147373 19.432718 24.265211
14.348427 19.842888 25.726376
16.246986 21.986412 47.322159
15.750227 21.956688 48.522686
16.091061 22.161575 50.078754
17.183315 22.579384 51.985374
19.964474 23.477196 54.698387
19.929766 23.583458 56.179741
18.88768 23.403921 57.186646
17.797504 23.209332 58.152706
16.898376 23.068048 59.197243
16.901421 23.18523 60.699055
17.162842 23.377884 62.350571
19.835213 18.1859 2.6815147
19.105179 18.09761 3.8175354
14.095695 16.994318 4.8981857
14.067674 17.068584 5.9899883
14.040335 17.14349 7.0882683
14.014923 17.219343 8.1931591
13.989376 17.295654 9.3046761
13.964084 17.372524 10.422911
13.938218 17.449755 11.547871
13.899019 17.524258 12.678528
13.694948 17.559143 13.800083
13.494128 17.595051 14.925095
13.298707 17.632515 16.053934
13.103138 17.670193 17.18611
12.906563 17.707874 18.321537
12.742924 17.753954 19.465288
12.593123 17.803776 20.615444
12.625637 17.899328 21.801546
12.626744 17.987679 22.990576
12.627856 18.076626 24.187672
12.62898 18.166182 25.392925
12.630114 18.256348 26.606411
12.631681 18.347244 27.828323
12.634567 18.439095 29.058956
12.637476 18.531586 30.298122
12.640402 18.62472 31.545933
12.71547 18.737022 32.822449
12.934657 18.887238 34.151192
15.388293 20.211496 44.202679
15.057713 20.22558 45.446869
14.817802 20.263882 46.728844
15.524845 20.555231 48.407082
17.123318 21.087502 50.494907
19.334415 22.118622 57.362907
18.206232 21.922533 58.313366
17.188892 21.755348 59.300526
16.557589 21.693026 60.472252
15.954017 21.63789 61.652557
16.315851 21.84967 63.357468
17.656507 16.557674 3.8778
17.149498 16.52216 4.9918098
16.643932 16.486746 6.1026344
16.139812 16.451433 7.2102814
15.637134 16.416222 8.314764
15.135881 16.381111 9.416111
14.636064 16.3461 10.514313
14.137238 16.311092 11.609373
14.053917 16.371956 12.736448
13.850134 16.405266 13.857656
13.646214 16.438763 14.981951
13.441313 16.472252 16.109261
13.23671 16.506031 17.239746
13.040883 16.542099 18.374617
12.844057 16.578171 19.512741
12.616976 16.607325 20.649405
12.55261 16.675316 21.816929
12.460663 16.737194 22.985847
12.367829 16.799276 24.160513
12.274534 16.86167 25.341034
12.181196 16.924477 26.527552
12.148214 17.002291 27.734013
12.14942 17.088924 28.956276
12.150208 17.176048 30.18685
12.151426 17.26388 31.426044
12.218325 17.368402 32.692032
12.432848 17.509928 34.011009
12.588402 17.637897 35.32616
12.729959 17.763298 36.649582
12.790327 17.869417 37.958988
12.903198 17.989365 39.296715
13.244957 18.1674 40.726719
12.98165 18.194849 41.954773
13.05361 18.306932 43.311611
13.43412 18.497801 44.799698
14.395624 18.83741 46.540356
11.781878 18.269314 46.834213
18.541389 20.612043 58.437569
17.479738 20.441139 59.403927
16.880491 20.390171 60.593315
16.300014 20.343761 61.787384
15.721925 20.297638 62.977852
19.088039 16.215015 12.025578
18.262897 16.113039 13.140083
17.406511 16.003498 14.241684
16.557795 15.894937 15.333408
15.71311 15.786557 16.414974
14.833609 15.669696 17.481419
13.962643 15.553968 18.537531
13.100056 15.439355 19.583469
12.765314 15.44289 20.703398
12.691608 15.505455 21.868828
12.599626 15.564294 23.037148
12.507624 15.623524 24.211349
12.408315 15.681487 25.390003
12.306391 15.739244 26.573929
12.204405 15.79738 27.763691
12.101495 15.855701 28.959141
11.998077 15.914305 30.160398
11.894592 15.973293 31.367634
11.806963 16.036386 32.585331
11.859333 16.132656 33.850029
11.931265 16.234186 35.130569
12.058433 16.349434 36.438976
12.13491 16.453506 37.742859
12.087158 16.528851 39.015583
12.002884 16.596033 40.283409
12.027552 16.689709 41.597862
12.054626 16.784628 42.923115
12.11009 16.887051 44.269444
12.236593 17.007353 45.655159
10.666392 16.717485 46.351074
11.454437 16.998884 48.023151
11.986828 17.219933 49.61293
12.253493 17.377514 51.106102
12.330377 17.489595 52.527775
12.534477 17.633879 54.02269
12.695705 17.768604 55.512177
12.625736 17.84687 56.899216
12.510927 17.914532 58.2715
12.421265 17.988989 59.6647
12.869185 18.199078 61.360817
15.070375 18.852924 64.065842
17.013134 15.156493 21.42157
16.02244 15.021985 22.473583
15.046646 14.889784 23.51421
14.081886 14.759077 24.543074
13.127973 14.629839 25.560364
12.280617 14.522906 26.587257
12.178787 14.577972 27.774483
12.076034 14.633211 28.967369
11.972784 14.68872 30.166046
11.869456 14.744592 31.37067
11.785829 14.805207 32.586788
11.73449 14.873412 33.818817
11.745514 14.955985 35.077049
11.816993 15.052649 36.363251
11.737314 15.116076 37.610786
11.519973 15.148949 38.81871
11.322884 15.186629 40.037361
11.287605 15.261267 41.318943
11.288881 15.34475 42.622524
11.289721 15.428727 43.935234
11.88435 15.649384 45.495487
10.423462 15.398867 46.229649
10.741415 15.557139 47.694942
11.204971 15.750281 49.24218
11.494362 15.904331 50.732403
11.559559 16.007187 52.135624
11.529716 16.088537 53.505013
11.632423 16.201637 54.949066
11.961362 16.368935 56.520733
11.950432 16.456997 57.934929
12.154226 16.596737 59.473965
12.495436 16.770294 61.104515
13.472086 17.097281 63.112202
14.89084 17.532959 65.412697
17.347891 14.360941 27.715523
16.282576 14.217339 28.736973
15.230728 14.07555 29.745514
14.192085 13.935542 30.741392
13.166849 13.797375 31.72496
12.216982 13.674049 32.713734
11.71391 13.643819 33.817753
11.662327 13.708639 35.05444
11.631166 13.778234 36.304974
11.564276 13.840722 37.551899
11.276537 13.856562 38.731377
11.085951 13.893299 39.946754
10.979498 13.948359 41.196938
10.901556 14.009951 42.464275
10.901019 14.088717 43.768887
11.313522 14.257675 45.248363
10.318541 14.121323 46.165493
10.63483 14.27058 47.625896
10.968185 14.424656 49.111572
11.088237 14.532889 50.519089
11.111126 14.62044 51.894299
11.099689 14.701016 53.263603
11.124598 14.79027 54.660538
11.410534 14.938481 56.200409
11.73227 15.095808 57.776928
11.997782 15.241647 59.342667
12.268492 15.38974 60.929127
13.249907 15.700041 62.932579
14.168196 15.998295 64.938049
18.061514 13.608573 34.343292
17.170542 13.506862 35.402348
16.084566 13.3656 36.390293
14.929461 13.209538 37.339382
13.040834 12.905244 38.030483
11.733759 12.715894 38.880962
10.873811 12.615541 39.86488
10.750476 12.663808 41.103737
10.636902 12.714402 42.352234
10.529252 12.766563 43.609291
21.811172 15.152595 49.436928
10.215992 12.85186 46.102455
10.555045 12.99725 47.568424
10.898813 13.144659 49.054756
11.022202 13.247329 50.459999
10.949636 13.309868 51.786999
10.964417 13.391147 53.163788
11.067135 13.491493 54.594246
11.318927 13.624011 56.112961
11.638175 13.771777 57.683731
11.907372 13.910001 59.24691
12.174858 14.048882 60.827053
13.33828 14.380527 62.927498
14.156231 14.640436 64.872749
17.612507 15.64967 71.532906
14.07532 14.968666 70.880981
13.469697 14.92415 72.032196
13.250781 14.96426 73.432899
13.774864 15.168547 75.340721
10.98957 10.810996 28.746855
11.054595 10.88777 29.968668
11.101652 10.961735 31.195469
11.190451 11.043978 32.443291
11.260493 11.123281 33.696194
11.317466 11.200682 34.955345
11.374897 11.278705 36.224606
11.268666 11.32637 37.450634
11.071345 11.357112 38.652054
11.0499 11.421504 39.91909
11.07579 11.495378 41.211723
10.952501 11.541213 42.45805
10.828638 11.587261 43.710178
21.797155 13.772335 49.411453
10.276815 11.6215 46.107056
10.591415 11.753471 47.560585
10.903627 11.885923 49.030663
11.005127 11.978116 50.423203
10.909641 12.03231 51.736462
10.948256 12.113313 53.12122
11.053346 12.208048 54.549629
11.217043 12.315105 56.020542
11.535088 12.453687 57.586128
11.80832 12.58433 59.14682
12.08038 12.715701 60.724827
13.198521 13.018427 62.794792
14.264288 13.312818 64.876602
15.026806 13.547881 66.820984
14.615509 13.545671 68.091293
13.313013 13.361279 68.811928
13.037872 13.386285 70.154709
12.789551 13.417003 71.518311
12.334909 13.4053 72.750137
11.990611 13.416409 74.054718
11.825066 13.464838 75.4841
8.5341663 7.7919798 0.1937294
11.245453 9.0839424 17.196863
10.944077 9.0902271 18.282579
10.64571 9.0970592 19.369577
10.494109 9.1287155 20.481417
10.555256 9.1966209 21.634499
10.616895 9.2650604 22.796635
10.679005 9.3340368 23.967937
10.741611 9.4035616 25.148521
10.804721 9.4736385 26.338488
10.841055 9.5395775 27.531651
10.873932 9.6053638 28.73283
10.906631 9.6715679 29.942841
10.939571 9.7382631 31.161867
11.018976 9.8135271 32.402832
11.172159 9.902235 33.675426
11.32643 9.9917431 34.960472
11.3855 10.065076 36.227928
11.27434 10.108782 37.450027
11.164375 10.153004 38.678555
11.143682 10.213448 39.944492
11.189342 10.286184 41.242882
11.234923 10.359419 42.551399
11.155945 10.41073 43.821873
21.643837 12.372723 49.330296
10.365489 10.399695 46.12323
10.641144 10.516268 47.558506
10.845709 10.620685 48.979137
10.978868 10.712757 50.382385
10.960457 10.777597 51.72831
10.988995 10.85158 53.10601
10.960674 10.915557 54.466408
11.114437 11.013878 55.928001
11.425375 11.142266 57.485355
11.69843 11.264498 59.041252
11.962963 11.386026 60.610378
13.097994 11.672804 62.68441
14.319626 11.978121 64.850342
14.737476 12.132825 66.589233
14.599024 12.182479 68.016418
12.711195 11.897263 68.373741
12.474637 11.927532 69.728928
12.553264 12.018887 71.291801
12.194649 12.02619 72.580261
11.972483 12.060095 73.961746
11.773413 12.09877 75.364281
11.58884 12.140585 76.782921
8.6324425 6.7490339 0.2518158
8.8634758 6.8300495 1.2375183
18.741159 8.4037352 3.1977692
14.211686 7.7755179 4.2846527
14.008081 7.7952881 5.3541718
13.803982 7.8151088 6.4263363
13.59896 7.8349156 7.5011425
13.393836 7.8548326 8.5786247
13.186986 7.8746138 9.6587124
12.945269 7.8891821 10.73917
12.702711 7.9037156 11.82155
12.411652 7.9108672 12.901661
12.11261 7.916832 13.981977
11.813339 7.9227996 15.063097
11.513855 7.9287729 16.145008
11.21334 7.9346237 17.227612
10.912601 7.9404783 18.311008
10.612059 7.9464021 19.395248
10.443475 7.9731717 20.501892
10.500254 8.0357685 21.651623
10.55707 8.0987864 22.810205
10.587913 8.1580887 23.972599
10.618979 8.2178221 25.143467
10.65069 8.2780609 26.323
10.682224 8.3386765 27.511105
10.713978 8.3997364 28.70797
10.794903 8.4691734 29.926136
10.881496 8.5400028 31.155849
10.9856 8.614172 32.4007
11.156833 8.699831 33.675793
11.329826 8.7863674 34.963917
11.520417 8.876399 36.270245
11.541372 8.9390125 37.534561
11.471145 8.9869347 38.777294
11.480813 9.0484905 40.055107
11.503992 9.1127319 41.346973
11.526918 9.1773834 42.648315
11.553945 9.2431793 43.96093
11.588634 9.3107319 45.286488
10.430682 9.1767254 46.129753
10.642509 9.2746382 47.535919
10.857176 9.3737345 48.958187
11.016114 9.4639988 50.370384
11.026587 9.5293989 51.727379
11.066442 9.6003399 53.108459
11.079865 9.6672182 54.487476
11.239935 9.7600574 55.950817
11.455016 9.8631659 57.457047
11.583308 9.9518423 58.933212
11.846743 10.064905 60.496902
12.911005 10.319971 62.52602
14.335505 10.640661 64.801674
15.4189 10.903159 66.927788
14.132557 10.745209 67.67141
12.773418 10.57305 68.3451
12.582518 10.609403 69.726639
11.941914 10.564962 70.824463
12.072467 10.659726 72.422821
12.34986 10.781882 74.135315
12.063083 10.802105 75.479645
11.775222 10.822283 76.826508
8.79109 5.716053 0.3077774
9.1333275 5.8067379 1.290966
13.422393 6.4457254 2.2318726
14.621292 6.6585197 3.2767792
14.306159 6.6612153 4.3432503
14.102447 6.6795359 5.4118881
13.866245 6.6934066 6.4823227
13.625914 6.7067833 7.5546265
13.385159 6.7201843 8.6288528
13.144377 6.7336674 9.7050209
12.902754 6.747117 10.783113
12.660691 6.7605906 11.86315
12.373091 6.7676268 12.941149
12.074684 6.7731562 14.019115
11.801124 6.7823033 15.100628
11.554267 6.7953725 16.186708
11.306576 6.8084059 17.274628
11.058868 6.8215222 18.364494
10.796261 6.8325481 19.454056
10.663771 6.8627148 20.566574
10.743227 6.9242439 21.720703
10.827803 6.9869366 22.885117
10.913898 7.0502701 24.059364
11.000302 7.1140723 25.243343
11.087429 7.1784101 26.437256
11.162872 7.2414322 27.638348
11.232681 7.3040347 28.847794
11.303064 7.3671474 30.06707
11.374026 7.4307752 31.296297
11.487372 7.5012598 32.547218
11.661668 7.5814929 33.826805
11.920471 7.6751704 35.144474
12.193176 7.7716208 36.481232
12.14986 7.8201866 37.730297
12.138465 7.8740101 38.997849
12.156242 7.9327207 40.284172
12.182504 7.9931574 41.582932
12.221278 8.0559673 42.896069
12.260358 8.1192646 44.219414
2.0580063 6.5763512 41.456059
0.82004547 6.433815 42.142853
0.47587681 6.4314785 43.186813
11.28959 8.1982641 49.121872
11.443562 8.2814846 50.534588
11.522865 8.3533773 51.9263
11.65842 8.4348049 53.356724
11.68762 8.4997129 54.748405
11.878215 8.5911465 56.232216
11.784397 8.6371651 57.584045
11.631393 8.6738968 58.91214
11.856654 8.7726326 60.452469
12.915652 9.008667 62.475079
14.002071 9.2509537 64.553284
14.736858 9.5689697 69.485001
13.892479 9.4947834 70.480347
13.581728 9.5094242 71.806107
13.124689 9.4995794 73.038208
13.053622 9.5548029 74.528046
12.649282 9.5539846 75.798584
12.302267 9.5629082 77.109192
8.9957228 4.6893072 0.36219406
9.3970137 4.7807078 1.344677
13.475984 5.3445158 2.2918968
14.635872 5.5361633 3.3364792
14.391849 5.5477643 4.4016838
14.156026 5.5605016 5.4688301
13.919351 5.5732079 6.5379391
13.68224 5.5859375 7.609026
13.445101 5.5987444 8.6821079
13.24793 5.6168742 9.7594948
13.169127 5.6506944 10.847759
13.089933 5.6846805 11.941351
12.878382 5.7013564 13.028618
12.631554 5.7134542 14.115055
12.384705 5.7256279 15.203426
12.123584 5.7359719 16.292027
11.861657 5.7462759 17.382185
11.598938 5.7565393 18.473906
11.336243 5.7668743 19.567289
11.204382 5.7950001 20.683815
11.286741 5.852427 21.842417
11.368954 5.9102135 23.010395
11.438656 5.9666719 24.185417
11.508939 6.0235868 25.369848
11.579784 6.0809588 26.563824
11.651617 6.1388526 27.767548
11.723618 6.1971583 28.980953
11.796192 6.2559381 30.204247
12.035573 6.3384018 31.481791
12.19301 6.4099474 32.750431
12.401909 6.4892144 34.046062
12.613518 6.5694051 35.35593
12.830511 6.6509094 36.681118
12.821396 6.7008667 37.94656
12.812205 6.7511601 39.220535
12.848444 6.8082976 40.519039
6.8248005 5.9963455 39.631363
4.9521847 5.7764006 40.159073
3.7901535 5.6575861 40.923817
3.7679033 5.7031994 42.123619
2.5669603 5.5776253 42.845154
11.48185 6.9283161 47.846806
11.743829 7.020587 49.294998
11.917885 7.1005845 50.719814
12.059175 7.1763196 52.14362
12.196441 7.2520027 53.578972
12.30006 7.3232298 55.01133
12.209812 7.3660474 56.35878
12.106766 7.4072618 57.707317
11.942892 7.4396343 59.031013
11.905428 7.4913111 60.429371
12.858489 7.6933198 62.389862
13.693069 7.8788157 64.319458
16.648582 8.5756435 72.14093
15.20316 8.4149952 72.773972
14.565351 8.3786221 73.907532
14.266836 8.3948956 75.2621
13.760636 8.3787775 76.477249
10.108497 3.768343 0.38716888
11.966196 4.0237541 1.3461914
13.515003 4.2443471 2.3519516
14.713683 4.4249239 3.3957977
14.486403 4.4375257 4.4600754
14.250868 4.4492245 5.5263367
14.063674 4.4667664 6.5958939
13.98672 4.4976158 7.6725464
13.909806 4.5286646 8.754467
13.832521 4.5598669 9.8416767
13.754441 4.5911713 10.934189
13.72977 4.6291513 12.036289
13.75311 4.6732144 13.149227
13.707863 4.7091928 14.262978
13.663193 4.7454734 15.383053
13.61786 4.7819071 16.509377
13.572262 4.8185463 17.64205
13.526829 4.855443 18.781178
13.486623 4.8932304 19.927607
13.62055 4.9529319 21.109322
13.903025 5.0315704 22.327662
14.103977 5.1005182 23.544807
14.294455 5.1686058 24.772194
14.486893 5.2373934 26.012184
14.681314 5.306891 27.264977
14.877762 5.3771114 28.530779
15.07625 5.4480624 29.809776
15.276824 5.5197582 31.102184
15.434299 5.5864134 32.396187
15.488361 5.6402173 33.673622
15.542849 5.6944413 34.96104
15.638988 5.7544308 36.271011
15.580475 5.7947326 37.54356
15.420425 5.8220682 38.790504
15.314031 5.8566151 40.060665
7.8870811 4.9300799 38.775089
6.6166229 4.8083739 39.546478
6.0223217 4.7752304 40.548344
5.8178425 4.793582 41.694859
12.942664 5.7880483 45.7743
13.730659 5.9427242 47.429695
13.89262 6.0145397 48.848457
13.900205 6.0660882 50.213345
14.061209 6.1387262 51.657295
14.270113 6.2183747 53.137455
14.682854 6.3263226 54.730217
14.722014 6.384047 56.16082
14.23047 6.3694763 57.33551
13.614682 6.3377161 58.443153
13.001559 6.3060918 59.54599
12.423843 6.2791409 60.661842
13.922907 6.5407052 62.930222
14.417508 6.6640406 64.676605
17.209539 3.5036106 1.29142
19.944256 3.8338242 2.3334007
16.393667 3.4886684 3.4511681
15.847795 3.4662151 4.5279236
16.074446 3.5274029 5.6140976
16.326101 3.5916967 6.712326
16.630894 3.6621933 7.8245335
14.160248 4.3429637 35.827381
12.900875 4.236753 36.703182
11.483057 4.1109791 37.505844
10.584971 4.0463352 38.45842
10.046917 4.0243387 39.523785
16.803055 5.1095095 50.061409
17.120186 5.1956339 51.596214
17.37738 5.274991 53.122108
17.38501 5.3240833 54.549065
17.352531 5.3685541 55.967285
16.850048 5.3548651 57.164783
16.602566 5.3729186 58.487625
15.937851 5.3388138 59.598885
15.041256 5.2752938 60.579971
14.227755 5.2218018 61.592529
14.371391 5.2891889 63.126648
14.59276 5.3669558 64.719757
18.489403 3.4700413 33.229561
17.70694 3.4266739 34.305267
16.367558 3.3238211 35.209919
14.436943 3.1572142 35.9133
13.631251 3.1098499 36.932247
13.512054 3.1358786 38.164104
13.524692 3.1762886 39.446342
14.485177 3.3194599 41.069309
14.849135 3.3989038 42.508709
15.196868 3.4771309 43.960091
15.672255 3.5698519 45.478695
16.051085 3.6526337 46.979973
16.343601 3.7265015 48.464695
16.591167 3.7959261 49.947361
16.687656 3.849103 51.380009
16.954916 3.9216452 52.90189
17.042276 3.9746304 54.357346
17.00098 4.013586 55.763908
16.591961 4.0114946 56.99966
16.425011 4.0366898 58.356583
16.16386 4.0514059 59.670853
15.902064 4.0661545 60.988281
15.19684 4.0304518 62.068493
15.682137 4.1307244 63.802704
24.237806 2.6194897 29.430122
21.853109 2.4329081 30.198809
21.510113 2.4363594 31.418936
21.048788 2.4287128 32.609737
19.889425 2.355175 33.612614
18.569496 2.2659492 34.552643
17.916502 2.2394466 35.663906
17.267725 2.2131662 36.769855
15.662816 2.0952988 37.569382
14.794553 2.0472918 38.579235
16.344433 2.23172 40.393497
15.49514 2.1856823 41.415081
15.39751 2.212183 42.697121
15.551405 2.2633286 44.08004
15.710561 2.3153439 45.47802
16.073467 2.3876762 46.970634
16.30562 2.4476643 48.427971
16.491032 2.5034657 49.88092
16.530464 2.5452118 51.284485
16.557165 2.58599 52.693138
16.694286 2.6380615 54.163513
16.997297 2.7071009 55.726456
16.853596 2.7317896 57.089027
16.912571 2.7770729 58.559891
17.030062 2.8286009 60.072861
17.076845 2.8733253 61.562103
17.34972 2.9414005 63.18586
28.137074 1.521101 24.945511
27.429958 1.495635 26.141357
26.725994 1.4702587 27.330862
26.026222 1.445055 28.514286
25.329559 1.4199409 29.691456
24.63702 1.3949976 30.862648
23.947536 1.3701429 32.027676
18.322006 1.3862257 50.633785
17.719095 1.367487 51.777142
17.864027 1.4140577 53.251305
18.383293 1.4938335 54.912369
20.266029 1.6943398 57.245499
19.064203 1.6234636 58.130791
19.78981 1.7231627 59.962257
29.173512 0.36808968 29.197472
19.142677 27.194443 54.02404
18.31926 26.814043 55.405407
18.402687 26.7225 56.635666
19.613297 26.986237 57.717724
18.944221 26.658752 59.03389
19.108452 26.593897 60.240692
17.435957 25.479378 53.017635
17.644604 25.429306 54.230564
18.020985 25.430748 55.414925
17.761267 25.238764 56.686676
17.7878 25.134813 57.908276
17.67366 24.989067 59.13847
17.614618 24.860878 60.352337
18.446089 25.000721 61.473957
17.250214 24.358934 50.510441
16.690294 24.08226 51.871628
16.897068 24.03397 53.080132
17.820522 24.197025 54.170265
18.972099 24.425924 55.238926
18.524246 24.185513 56.545059
17.198929 23.690933 57.943886
16.568495 23.401524 59.225056
16.534735 23.286806 60.42207
16.5373 23.183331 61.607048
16.574041 23.090368 62.781445
18.345701 23.495417 63.823997
15.787362 22.758162 49.521652
15.970426 22.705051 50.734268
16.427324 22.730268 51.892502
17.473675 22.922581 52.951599
18.607967 23.138466 54.01194
19.902941 23.39819 55.065487
19.67627 23.228725 56.349434
18.161188 22.699671 57.783371
16.760395 22.206024 59.162445
16.141434 21.93309 60.420822
15.559557 21.672237 61.654377
15.639811 21.596043 62.81255
16.051224 21.611546 63.940811
15.460644 21.60088 47.056854
15.086831 21.395792 48.397507
15.388371 21.377766 49.581612
16.32819 21.534733 50.639935
17.278492 21.693501 51.709446
18.327351 21.878017 52.775246
18.973312 21.650749 57.641426
17.108873 21.052706 59.08165
16.489569 20.79073 60.342022
15.956816 20.553493 61.572914
15.432695 20.320099 62.783836
14.917021 20.090464 63.975288
16.423388 20.39463 65.022362
14.296632 20.118416 46.054924
14.419754 20.053997 47.278458
15.334164 20.198992 48.323807
16.258472 20.345606 49.379837
12.41105 18.692213 58.439278
12.206633 18.550724 59.612564
12.24057 18.471039 60.748642
12.685607 18.496521 61.838989
14.667372 18.911713 62.802376
14.651274 18.818977 63.947258
14.635717 18.726982 65.084312
9.3703651 21.133114 -0.33092499
9.238327 20.981174 1.2989693
16.211977 19.829185 39.084702
13.837711 19.119911 41.0881
13.409205 18.915146 42.485748
13.031184 18.72471 43.850922
13.249826 18.687731 45.04723
10.56855 17.914082 46.940636
11.117065 17.963667 48.020321
11.667673 18.013441 49.104107
12.040035 18.018044 50.229282
12.136433 17.953438 51.40873
12.168753 17.873255 52.59409
12.215247 17.797142 53.769722
12.278342 17.725658 54.935806
12.184738 17.615898 56.118931
12.047684 17.496153 57.298256
11.860088 17.364784 58.47332
11.870201 17.2827 59.613556
12.028681 17.23737 60.730751
12.455608 17.257643 61.81839
12.954557 17.295246 62.901741
13.45499 17.332964 63.988293
14.350214 17.465542 65.053207
16.199421 17.826332 66.079521
7.9445109 19.376019 0.76745605
9.2161169 19.617901 1.3987045
11.086936 20.021641 1.649826
12.852026 20.393501 2.0150414
13.91718 20.572733 2.874691
13.895559 20.457054 4.4429245
13.919012 20.354385 5.9707794
13.942791 20.252583 7.4874401
13.966409 20.151501 8.9933281
13.988382 20.050743 10.48941
13.985851 19.944244 11.988619
13.831715 19.798506 13.559759
13.564901 19.624208 15.175835
13.301388 19.452065 16.771935
13.044414 19.2829 18.346752
12.796637 19.117371 19.899422
12.629752 18.974022 21.396107
12.543973 18.852667 22.840126
12.458951 18.732389 24.271305
12.374687 18.613176 25.689838
12.291159 18.495012 27.095867
12.210634 18.378462 28.488647
12.136194 18.26429 29.867149
12.062393 18.151094 31.233891
12.03023 18.049191 32.573574
12.167747 17.990593 33.841393
12.297541 17.930475 35.106071
12.341021 17.849274 36.393955
12.326272 17.754183 37.69276
12.269814 17.649433 38.995239
12.09523 17.516285 40.323002
11.681607 17.325321 41.706833
12.071894 17.332544 42.849079
11.931046 17.210098 44.132946
11.83227 17.098724 45.394253
10.561652 16.704092 46.928009
10.906982 16.702477 48.051987
11.20694 16.689949 49.185726
11.429291 16.658888 50.334305
11.459819 16.582172 51.517399
11.380072 16.479694 52.713486
11.256624 16.367527 53.907379
11.302203 16.296116 55.063374
11.416813 16.241467 56.202263
11.498344 16.179403 57.340618
11.501393 16.099358 58.483223
11.661831 16.056602 59.599892
11.840195 16.018301 60.71069
12.267468 16.038012 61.794136
12.760174 16.072723 62.873856
13.254712 16.107635 63.956635
13.75025 16.14255 65.042557
16.30117 16.648014 66.022522
13.910548 15.637381 72.703308
13.545838 15.480224 73.764641
13.692174 15.43816 74.826569
13.828617 15.394157 75.884384
7.9206891 18.030315 0.87083054
9.2793789 18.283436 1.4388237
11.184713 18.67672 1.6653748
12.920524 19.023087 2.0491486
13.992447 19.19553 2.9025459
13.412597 18.942144 4.8218727
13.401978 18.836422 6.3602695
13.392907 18.731894 7.8858452
13.392616 18.630383 9.3945446
13.392333 18.529634 10.891918
13.392049 18.429638 12.378105
13.171529 18.275047 13.973955
12.920444 18.113953 15.569088
12.671926 17.954685 17.145193
12.426859 17.797451 18.702112
12.166745 17.637642 20.249308
12.066759 17.518501 21.702293
11.991408 17.406282 23.130884
11.917152 17.295147 24.546885
11.843538 17.184971 25.950642
11.770561 17.075741 27.342346
11.698211 16.967447 28.72213
11.62647 16.860077 30.090153
11.555342 16.753616 31.446568
11.564577 16.667175 32.761543
11.610678 16.590149 34.054035
11.656061 16.513493 35.338707
11.701158 16.437309 36.615479
11.641364 16.336872 37.918488
11.34894 16.18235 39.284039
11.182623 16.058496 40.595612
11.101079 15.955327 41.869892
11.022343 15.853523 43.132805
10.972569 15.759148 44.377617
9.9374485 15.437348 45.86269
10.174532 15.411207 47.007401
10.410669 15.385027 48.149673
10.646297 15.358908 49.289421
10.777428 15.309106 50.448177
10.778772 15.230104 51.627327
10.762015 15.14753 52.801922
10.72655 15.061277 53.971527
10.772526 14.993948 55.119415
10.99854 14.967492 56.233521
11.220768 14.940363 57.345551
11.414232 14.906998 58.458611
11.59363 14.870726 59.570061
11.77124 14.834295 60.678158
12.250073 14.864632 61.753799
12.793991 14.9091 62.826832
13.251531 14.934323 63.910606
13.744884 14.967216 64.994522
14.914125 15.147249 66.04538
13.210663 14.482634 70.497589
12.635265 14.287037 71.571709
12.350978 14.15494 72.62973
11.965555 14.002113 73.673523
11.715003 13.878913 74.706802
11.499899 13.763996 75.729919
11.363995 13.666524 76.746132
13.744943 14.099543 77.898315
12.333899 17.594614 0.96907043
13.380181 17.753019 1.8240356
14.307482 17.881075 2.7749519
13.59361 17.607769 4.7796745
13.5823 17.507286 6.3175621
13.571075 17.407579 7.8435421
13.567691 17.310513 9.3531647
13.564342 17.21418 10.851397
13.561004 17.118568 12.338366
13.325297 16.968241 13.941486
13.066346 16.813501 15.539589
12.813831 16.661425 17.116488
12.571356 16.512835 18.670799
12.306841 16.360151 20.218946
12.200325 16.245583 21.67388
12.110298 16.135693 23.108097
12.021535 16.026894 24.529274
11.93356 15.919059 25.937826
11.828416 15.808038 27.341553
11.705042 15.693619 28.740381
11.583282 15.580386 30.125782
11.462671 15.468221 31.498119
11.375191 15.364389 32.845566
11.34129 15.273439 34.162083
11.388162 15.201379 35.44025
11.435193 15.12986 36.710464
11.235964 15.003587 38.053097
10.9119 14.850282 39.421104
10.770864 14.738821 40.717285
10.690695 14.641645 41.983776
10.642306 14.552172 43.230968
10.702407 14.487236 44.439735
9.8536711 14.223017 45.872116
10.090188 14.198284 47.01368
10.326608 14.173698 48.152622
10.581075 14.153204 49.285019
10.669137 14.096772 50.44973
10.630597 14.013366 51.633293
10.61401 13.935246 52.804039
10.630555 13.864758 53.960884
10.706786 13.807508 55.1007
10.929454 13.781858 56.212456
11.146711 13.755228 57.322327
11.342644 13.724257 58.432182
11.523329 13.690271 59.540657
11.702641 13.656219 60.645786
12.154327 13.679512 61.72118
12.773056 13.73757 62.784634
13.331249 13.782639 63.858528
13.789391 13.806637 64.943443
14.848974 13.954988 65.998283
14.572 13.826587 67.126366
14.173896 13.674093 68.24559
12.734714 13.309115 69.373528
12.523526 13.197439 70.449387
12.300118 13.083983 71.514175
11.878325 12.930954 72.566254
11.464893 12.780581 73.603378
11.347231 12.690844 74.633804
11.230572 12.601871 75.655472
11.114532 12.513577 76.668472
10.990275 12.424191 77.672394
15.120829 16.585529 3.8864288
15.294824 16.531897 5.3283424
15.468058 16.478495 6.7640514
15.640045 16.425209 8.1938648
15.793212 16.368038 9.6279297
15.9271 16.306923 11.065773
15.962687 16.224056 12.549915
15.500138 16.029718 14.28965
15.037073 15.836694 16.00601
14.543242 15.638211 17.714539
14.057016 15.442872 19.395338
13.578216 15.250599 21.049082
12.917751 15.019585 22.764397
12.270151 14.793071 24.446308
11.924217 14.634356 25.968609
11.800533 14.525353 27.377274
11.678023 14.417385 28.77256
11.556668 14.310437 30.154671
11.436453 14.204494 31.523788
11.354534 14.107552 32.866127
11.296828 14.016491 34.188389
11.239592 13.92617 35.499908
11.255355 13.852045 36.776291
10.994397 13.719644 38.134293
10.663543 13.573364 39.498993
10.52474 13.468617 40.789051
10.386849 13.364785 42.066879
10.266932 13.265433 43.327919
10.34064 13.207195 44.526264
9.7703552 13.015334 45.881496
10.018625 12.994549 47.016941
10.272987 12.975163 48.148655
10.52689 12.955814 49.278297
10.604605 12.900423 50.442345
10.513239 12.810807 51.633373
10.505255 12.738794 52.799088
10.583044 12.684696 53.941978
10.665303 12.631864 55.078194
10.853807 12.600832 56.192547
11.069376 12.575452 57.299725
11.265714 12.546381 58.406624
11.446052 12.514302 59.512264
11.625836 12.482324 60.614498
12.076685 12.504391 61.687038
12.6866 12.557805 62.74826
13.295918 12.610755 63.815247
13.877753 12.657958 64.889664
14.265375 12.66678 65.979691
14.417276 12.629478 67.08107
12.383422 12.166613 68.25235
12.200903 12.066202 69.331291
12.048841 11.972324 70.399292
12.136648 11.925326 71.45668
12.021132 11.839515 72.507774
11.721596 11.718959 73.546814
11.597693 11.63273 74.578079
11.543151 11.560257 75.602966
11.350762 11.462051 76.613953
11.155286 11.363872 77.614685
17.453012 14.180083 29.204685
16.775854 13.963278 30.843727
16.161673 13.760763 32.433212
15.911341 13.633169 33.870331
15.590374 13.492247 35.315731
10.71619 12.438911 38.227409
10.559947 12.336036 39.531483
10.494326 12.251925 40.795799
10.408732 12.164427 42.05574
10.323446 12.077592 43.305073
10.238476 11.991411 44.543922
9.7982464 11.83601 45.862701
10.049774 11.817134 46.995399
10.301241 11.798374 48.125881
10.52183 11.773734 49.260899
10.60842 11.723283 50.420853
10.535574 11.642365 51.606171
10.532001 11.575328 52.769207
10.620152 11.52634 53.908493
10.577887 11.452731 55.063286
10.771272 11.424537 56.173847
10.984756 11.400347 57.278339
11.179877 11.372838 58.382416
11.359055 11.342501 59.485222
11.53525 11.311798 60.5849
11.980293 11.33172 61.654938
12.626902 11.389194 62.709797
13.277328 11.447009 63.770882
13.88472 11.496458 64.841293
14.541598 11.554751 65.914566
14.680462 11.517071 67.017471
12.30023 11.016207 68.202545
12.204922 10.937536 69.276886
12.128315 10.862783 70.342224
11.650357 10.715368 71.40078
11.642591 10.65429 72.446045
11.950352 10.65073 73.489723
11.918929 10.585966 74.524124
11.719041 10.491293 75.545357
11.52076 10.397496 76.556335
11.324855 10.304707 77.557259
10.825108 11.516824 33.090263
10.883107 11.458618 34.358688
10.941183 11.400835 35.619503
10.986935 11.34112 36.876984
10.716527 11.222131 38.229752
10.65133 11.142574 39.502823
10.703668 11.085601 40.730251
10.743097 11.026608 41.954121
10.656278 10.944511 43.205532
10.5702 10.863113 44.446301
9.8738804 10.669411 45.831802
10.125042 10.651653 46.963211
10.31546 10.622858 48.106392
10.474574 10.588526 49.252838
10.571717 10.543117 50.407864
10.578627 10.481603 51.574978
10.569229 10.417543 52.737473
10.543297 10.350924 53.894917
10.490952 10.279989 55.048462
10.694021 10.255356 56.154518
10.902594 10.231869 57.256767
11.093275 10.205346 58.358486
11.269693 10.176463 59.458668
11.445548 10.147668 60.55542
11.882807 10.165206 61.623169
12.528154 10.219247 62.674942
13.187649 10.275419 63.732132
13.841157 10.330185 64.796432
14.945038 10.463085 65.842293
15.221925 10.451476 66.941261
13.196234 10.041229 68.118958
12.964352 9.9432154 69.204109
12.883944 9.8718853 70.275536
13.041907 9.8418903 71.33757
12.715014 9.7291832 72.393295
12.599147 9.6531506 73.439194
12.65646 9.6070185 74.480682
12.384898 9.5054684 75.505142
12.200328 9.4192381 76.521805
12.01754 9.3338413 77.528625
10.472303 10.552455 26.685253
10.534239 10.496803 27.987535
10.591043 10.440617 29.284092
10.609074 10.377817 30.588284
10.627409 10.315516 31.883562
10.758989 10.273982 33.127655
10.889559 10.232558 34.366348
10.953084 10.179471 35.622784
10.972216 10.118868 36.886894
10.813959 10.027283 38.200455
10.742094 9.9515696 39.474361
10.794115 9.898159 40.700565
10.845826 9.8450603 41.919579
10.897239 9.7922707 43.131481
10.956717 9.7412453 44.334087
9.9489288 9.5054836 45.801094
10.109324 9.4732151 46.953117
10.277709 9.4425411 48.098965
10.479858 9.4178696 49.233322
10.639317 9.3860588 50.373272
10.686753 9.3353586 51.53104
10.794157 9.295187 52.670998
10.863667 9.2488623 53.812275
10.925907 9.2016172 54.948647
11.145111 9.181097 56.054962
11.270004 9.1448927 57.171921
11.184451 9.0737438 58.311584
11.276648 9.0326786 59.420807
11.439692 9.0036469 60.517029
11.874897 9.0198593 61.582848
12.542714 9.0743523 62.630436
13.186287 9.124506 63.686844
13.615414 9.1391792 64.763863
14.461987 9.221981 65.819405
14.915401 9.0746899 70.189209
14.446242 8.9447441 71.272964
14.023291 8.8230238 72.340767
13.460967 8.6797867 73.391335
13.546185 8.6406307 74.440384
13.677248 8.6090012 75.486191
13.222919 8.4848614 76.501968
12.876719 8.378561 77.508392
10.163054 9.5085297 21.46336
10.22649 9.4554796 22.793463
10.289552 9.4027452 24.115643
10.352237 9.3503246 25.429955
10.391127 9.294219 26.746746
10.40946 9.2350178 28.063808
10.428087 9.1762848 29.371826
10.446177 9.117877 30.67124
10.467138 9.0603638 31.960796
10.59861 9.0217772 33.200333
10.754721 8.9875755 34.425209
10.960226 8.9618349 35.627716
11.167258 8.9365253 36.825909
11.151943 8.8746376 38.0928
0.063147545 6.9889917 42.823494
11.261041 8.775074 40.557339
11.344545 8.7305412 41.770355
11.430148 8.686655 42.976322
11.527122 8.6449137 44.172924
10.209646 8.3743944 45.72319
10.41232 8.3510494 46.865738
10.61484 8.327837 48.004974
10.839802 8.3083782 49.135979
11.030508 8.2835751 50.271336
11.099882 8.2396173 51.427082
11.250433 8.2088337 52.561554
11.39674 8.1775837 53.692429
11.468785 8.1348314 54.831055
11.627923 8.1060467 55.950428
11.578756 8.0448227 57.095261
11.493061 7.9782948 58.236366
11.379837 7.907917 59.371552
11.480535 7.8711772 60.473701
11.903018 7.8844266 61.539146
12.538032 7.9303436 62.587753
12.964592 7.943944 63.65873
13.440114 7.9649544 64.728294
14.239046 8.0351944 65.782486
11.329638 8.6866188 15.335157
10.869702 8.5500374 16.992943
10.41758 8.4157162 18.62393
10.06011 8.2976484 20.184919
10.105995 8.2453127 21.5284
10.169002 8.1960983 22.855091
10.189508 8.1404495 24.193436
10.208578 8.0849705 25.523331
10.301334 8.0415707 26.811882
10.444069 8.0063744 28.072109
10.584898 7.971127 29.327438
10.70142 7.9323149 30.586803
10.817812 7.8937559 31.839972
11.013195 7.8677711 33.057365
11.218716 7.8435416 34.266933
11.502069 7.831521 35.445393
11.7824 7.8191185 36.622967
11.780294 7.7634096 37.890579
0.85630512 6.0359368 42.574745
0.31225109 5.9040351 43.857246
11.995326 7.6322269 41.577042
12.091145 7.5927534 42.78553
12.186497 7.5534763 43.988026
10.548095 7.2535152 45.625504
10.750986 7.2317781 46.769672
10.98013 7.2141123 47.904427
11.214121 7.1972866 49.035408
11.423208 7.1768751 50.16901
11.558556 7.1456852 51.314053
11.709038 7.1169343 52.451542
11.854839 7.0876851 53.585518
12.193953 7.0869584 54.68343
12.292197 7.0510535 55.818016
12.320253 7.0051651 56.957176
12.032422 6.9137359 58.130859
11.687672 6.8146677 59.297775
11.573969 6.7495532 60.424732
11.895508 6.747407 61.499084
12.438933 6.7770581 62.553558
13.03984 6.8147268 63.60791
13.937715 6.8944221 64.64782
14.261179 6.8921142 65.731995
8.3708658 7.6555891 -0.2646904
8.6808796 7.6437559 1.016655
13.557518 8.0989399 5.3011093
13.250553 7.9909234 6.9955711
12.947616 7.8843255 8.6677551
12.601722 7.771965 10.345581
12.218849 7.6548138 12.024059
11.746204 7.5249333 13.731323
