# .PCD v0.7 - Point Cloud Data file format
VERSION 0.7
FIELDS x y z
SIZE 4 4 4
TYPE F F F
COUNT 1 1 1
WIDTH 1610
HEIGHT 1
VIEWPOINT 0 0 0 1 0 0 0
POINTS 1610
DATA ascii
30.126034 13.585717 89.304321
30.640432 12.793357 88.185509
30.554354 9.6295385 87.285538
27.559174 12.803413 96.054237
28.379478 13.146419 94.79277
28.977745 12.695977 93.656342
29.508207 11.975405 92.5495
30.409138 12.6281 91.249283
30.933311 11.850745 90.135391
20.297649 19.707283 2.1111832
21.932516 20.610903 2.8270073
23.543489 20.484791 2.7271004
15.215385 15.88159 1.1073875
16.93639 16.934338 1.9244957
18.654049 18.604145 3.2205315
20.327204 20.251888 4.4994545
21.943535 20.873825 4.9821777
23.543495 20.574196 4.7496185
34.733505 20.979809 5.0644379
36.311451 21.175823 5.2165794
13.464133 14.19701 1.8344383
15.249068 15.801903 3.0546532
17.003166 17.620419 4.4372902
18.691843 18.98502 5.4748077
20.333448 19.916489 6.1830139
21.94507 20.41993 6.5657845
23.543497 20.393883 6.5459862
25.165359 18.630125 5.2049828
33.169479 19.969532 6.2233429
34.703217 20.739853 6.8090248
36.303307 20.68416 6.7666855
38.062473 19.290499 5.7070618
13.467063 13.635077 3.4316673
15.248166 15.196189 4.5940742
17.035275 17.653038 6.4234505
18.739452 19.625973 7.8925056
20.366795 20.623322 8.6351395
21.954884 20.603533 8.6204033
23.543501 19.97967 8.1558685
25.174362 17.360552 6.2056656
31.825922 15.394354 4.7416306
33.115257 20.090656 8.2385063
34.663422 20.607386 8.6232719
36.272476 20.41081 8.476902
38.03772 18.925968 7.3712769
13.377069 11.879331 4.1573906
15.165991 13.336964 5.2200623
16.968166 15.778836 7.0002899
18.770605 19.855249 9.972168
20.383656 20.706829 10.593006
21.961443 20.542181 10.472965
23.543495 19.735474 9.8848457
30.366068 11.012808 3.52565
31.690964 16.884476 7.8063469
33.126938 19.371405 9.6194267
34.672405 19.941616 10.03513
36.295113 19.624935 9.8042488
13.234481 9.4338074 4.4265251
14.991682 10.038583 4.8581085
17.120621 18.144531 10.642712
18.814892 20.431087 12.274448
20.410673 21.189449 12.815636
21.973833 20.937532 12.635864
23.543495 19.744436 11.784443
30.43129 9.1410856 4.2176323
31.517185 18.995245 11.249802
33.07653 19.452076 11.575806
34.667587 19.427647 11.558372
36.328312 18.734684 11.063862
17.270878 20.494873 14.184212
18.89658 21.987495 15.226582
20.459633 22.535625 15.609364
22.003489 22.685106 15.713757
23.543491 21.823517 15.112064
31.500908 18.679607 12.916523
33.070091 18.968725 13.118423
34.666237 18.875658 13.053436
36.337593 18.074135 12.49369
15.690982 19.751709 15.523689
17.316965 20.836094 16.264553
18.906807 21.701458 16.855782
20.457018 21.882999 16.979813
22.001015 21.942162 17.020233
23.543497 21.512468 16.726662
25.10227 20.668646 16.15015
29.962835 17.067804 13.690018
31.458464 18.775286 14.856586
33.037239 18.830309 14.894176
34.645103 18.544653 14.699017
36.347237 17.409197 13.92326
13.982985 17.391792 15.788349
15.703214 19.383448 17.11919
17.313053 20.203903 17.667433
18.90217 21.028446 18.218399
20.455379 21.268061 18.378515
21.996449 21.033258 18.221615
23.543499 20.661337 17.973091
25.108959 19.587543 17.255573
29.820782 19.284161 17.052849
31.348074 19.944305 17.493969
32.9146 19.870953 17.44495
34.603088 18.450163 16.495564
36.323269 17.073486 15.575653
13.991676 16.937397 17.351467
15.698776 18.753963 18.538319
17.315948 19.705135 19.159761
18.908781 20.650351 19.777313
20.462399 20.994091 20.001896
21.999273 20.704302 19.812565
23.543493 19.819006 19.234163
25.122524 17.958462 18.018579
28.304075 17.340727 17.614981
29.807808 18.980085 18.686054
31.329418 19.681789 19.144512
32.886059 19.688845 19.149118
34.461826 19.478378 19.011614
36.139256 18.318094 18.253544
13.943607 15.734543 18.433245
15.699648 18.207972 20.012821
17.319221 19.214447 20.655573
18.908943 20.103386 21.223267
20.467201 20.634666 21.562551
21.99754 20.015821 21.167345
23.543497 19.063944 20.55946
28.292194 17.088066 19.29763
29.825348 18.073866 19.927176
31.365967 18.54694 20.22929
32.921745 18.661898 20.302706
34.51672 18.300352 20.071817
36.161018 17.540684 19.586679
15.705933 17.748215 21.540733
17.334438 18.962101 22.298222
18.920204 19.850697 22.852722
20.46806 20.120026 23.020788
21.995455 19.29818 22.507944
23.543503 18.07546 21.744942
28.279116 16.870468 20.993002
29.818352 17.652653 21.481102
31.383396 17.711002 21.517513
32.958134 17.621506 21.461666
34.597393 16.823719 20.963831
36.313591 15.459661 20.112635
15.734596 17.647274 23.284472
17.375721 19.233376 24.251282
18.938036 19.776525 24.582359
20.470047 19.650707 24.505665
21.997875 18.939667 24.072254
23.543501 17.370979 23.116051
26.759912 13.935152 21.02174
28.265215 16.677662 22.693443
29.826443 16.931278 22.848032
31.395597 16.956476 22.86339
32.985207 16.700716 22.707491
34.642406 15.745978 22.125528
14.048352 15.423892 23.751757
15.817038 18.414291 25.531681
17.398258 19.135735 25.961094
18.941006 19.308216 26.063753
20.46961 19.084602 25.930655
22.000397 18.590422 25.636517
23.543495 17.038815 24.71298
26.732944 14.444109 23.168575
28.26796 16.042603 24.120022
29.839348 16.111547 24.161055
31.418901 16.021687 24.107567
33.023911 15.621119 23.869148
34.842144 12.888489 22.242649
14.134358 16.015638 25.901991
15.875265 18.80228 27.521032
17.419247 19.010891 27.642237
18.952648 19.073668 27.678709
20.468 18.471241 27.328695
22.001184 18.103031 27.114767
23.543501 15.929995 25.852228
26.702351 15.109329 25.375422
28.262775 15.62022 25.672253
29.835472 15.628153 25.676861
31.439308 15.130463 25.387701
33.063011 14.531498 25.039701
14.324831 18.028494 28.825293
15.924242 19.048943 29.403797
17.498112 20.062252 29.978258
18.996649 19.716129 29.782034
20.498058 19.140739 29.455839
22.011034 18.351257 29.00827
25.133926 13.653723 26.345169
26.700647 14.614567 26.889889
28.262352 15.070293 27.148247
29.842134 14.931864 27.069767
31.44944 14.402728 26.769794
33.127716 13.091613 26.026503
12.587433 15.143725 28.968609
14.364388 18.016747 30.557245
15.968603 19.227299 31.226624
17.514977 19.866051 31.579821
19.010998 19.56465 31.413158
20.510242 19.09301 31.152367
22.013012 17.965359 30.528831
23.543499 16.413288 29.670612
25.13031 13.381216 27.994026
26.701874 14.001192 28.336843
28.269337 14.319567 28.512886
29.866236 13.87952 28.269566
31.499363 13.026 27.797611
12.661446 15.44956 30.896692
14.442086 18.52943 32.557076
16.048443 19.991898 33.345505
17.550001 20.044008 33.373596
19.031679 19.589125 33.128365
20.524977 19.154116 32.893848
22.012915 17.411095 31.95417
23.543501 15.781773 31.075788
25.111544 14.348925 30.303329
26.675224 14.527245 30.399462
28.246395 14.382582 30.321472
29.843824 13.773592 29.993162
31.560112 11.46499 28.748571
12.90209 17.717331 33.831829
14.546213 19.41301 34.722721
16.145138 21.04488 35.580086
17.601578 20.568005 35.329536
19.069195 20.079081 35.072662
20.540646 19.258762 34.641678
22.015594 17.085114 33.499672
23.543495 12.281065 30.975681
25.112106 13.743566 31.744064
26.669994 14.182993 31.974934
28.23925 14.018768 31.888651
29.826382 13.569583 31.652658
31.470646 12.361938 31.018173
13.027376 18.650692 36.007256
14.670725 20.589111 36.99931
16.201447 21.445473 37.437584
17.649319 21.0221 37.220909
19.105749 20.551739 36.980179
20.563839 19.679512 36.533791
22.023838 17.219223 35.274651
23.543497 11.910261 32.557602
25.110231 13.338007 33.2883
26.66003 14.036253 33.645653
28.225103 13.849001 33.54982
29.793919 13.678357 33.462486
31.457684 12.010021 32.608658
11.116737 13.88762 35.304344
13.143959 19.493895 38.097946
14.761295 21.311544 39.003685
16.239805 21.556808 39.1259
17.680365 21.139065 38.91774
19.13098 20.72047 38.709152
20.58103 19.859604 38.280182
22.03422 17.536888 37.122772
23.543503 11.909997 34.318893
25.10335 13.348822 35.035858
26.643509 14.164364 35.442245
28.198668 14.021894 35.371254
29.760115 13.820651 35.270973
31.410782 12.222081 34.474407
11.599478 18.352184 39.18922
13.247029 20.188494 40.0797
14.834133 21.798931 40.860649
16.281893 21.735725 40.830002
17.713642 21.307985 40.622574
19.154896 20.858513 40.404613
20.593159 19.835554 39.90855
22.042793 17.712168 38.878857
23.543495 12.077785 36.146576
25.091362 13.788568 36.976181
26.623367 14.448622 37.296265
28.168419 14.306834 37.227509
29.716084 14.181602 37.166779
31.323566 13.111376 36.647793
33.037201 10.926558 35.58831
11.717791 19.054823 41.166637
13.327433 20.623024 41.906319
14.894107 22.11594 42.610485
16.330715 22.033102 42.571415
17.744324 21.428669 42.28632
19.175604 20.913197 42.043182
20.606213 19.854156 41.543663
22.050253 17.79883 40.574219
23.543505 12.496438 38.073212
25.079426 14.233918 38.892738
26.60429 14.695908 39.110645
28.139782 14.554163 39.043789
29.678251 14.421013 38.980984
31.256224 13.68119 38.632027
32.938416 11.737057 37.715031
11.819624 19.595064 43.037117
13.422517 21.241753 43.792175
14.933879 22.157608 44.212124
16.407152 22.800798 44.50705
17.817604 22.448116 44.345333
19.220097 21.637661 43.973713
20.643612 20.898838 43.634941
22.05662 17.800995 42.214478
23.543493 12.757487 39.901867
25.068893 14.569487 40.732727
26.587421 14.857481 40.864784
28.115425 14.688488 40.787292
29.647457 14.519613 40.709858
31.215839 13.808197 40.383652
32.872944 12.093684 39.597492
10.200567 17.634666 43.765732
11.916498 20.092236 44.86058
13.463099 21.214241 45.360435
14.949213 21.860855 45.648502
16.419529 22.50012 45.933296
17.868898 23.017746 46.163898
19.267288 22.448647 45.910366
20.676277 21.757252 45.602348
22.101583 21.057835 45.290756
23.543495 20.15937 44.890491
25.058905 14.86645 42.53249
26.572342 14.949863 42.569649
28.092247 14.795575 42.500916
29.615837 14.640916 42.432014
31.17609 13.93054 42.11554
32.819851 12.284403 41.382187
10.281602 17.867342 45.480179
11.920665 19.617752 46.23737
13.458978 20.650581 46.684151
14.951582 21.383236 47.00108
16.435978 22.269909 47.384636
17.88081 22.763275 47.598057
19.28389 22.408035 47.444386
20.693586 21.978067 47.258392
22.113144 21.521442 47.060863
23.543499 20.565302 46.647259
24.99765 19.507669 46.189747
26.476942 18.444447 45.72982
27.972765 17.623899 45.374866
29.513 16.2742 44.791016
31.125664 14.239086 43.910667
32.765701 12.496224 43.156738
10.265938 17.193722 46.79467
11.953407 19.447018 47.740528
13.476188 20.345375 48.117626
14.975618 21.212505 48.481621
16.463886 22.236864 48.911613
17.891565 22.486765 49.01651
19.295355 22.226238 48.90715
20.701296 21.796783 48.726879
22.115892 21.244461 48.495033
23.543507 20.406187 48.143154
24.990976 19.555733 47.786163
26.454016 18.894896 47.508766
27.93951 18.038736 47.149376
29.447876 17.124933 46.765793
31.013191 15.608896 46.12941
32.631691 13.845319 45.389122
10.317328 17.154499 48.371155
11.98795 19.298462 49.243881
13.504463 20.176811 49.601421
15.009276 21.18153 50.010403
16.491543 22.203598 50.426449
17.902317 22.211796 50.429783
19.30578 22.017387 50.350647
20.708969 21.616955 50.187649
22.118626 20.968538 49.923702
23.543495 20.129974 49.582355
24.986353 19.434219 49.299141
26.449589 18.564575 48.945141
27.927422 17.859646 48.658192
29.421946 17.151363 48.369881
30.959297 15.995469 47.899361
32.533821 14.696388 47.370556
10.382605 17.251444 49.989079
12.020548 19.132126 50.730934
13.541344 20.116528 51.119244
15.042765 21.152256 51.527798
16.516718 22.131716 51.914158
17.913029 21.937859 51.837688
19.313831 21.743378 51.760971
20.716581 21.437614 51.640358
22.121361 20.693666 51.346901
23.543497 19.890217 51.029972
24.983156 19.193144 50.755005
26.442535 18.348269 50.421734
27.917042 17.634531 50.14019
29.407951 16.926659 49.860962
30.943001 15.74538 49.394993
32.516945 14.402586 48.865314
34.722801 5.7098265 45.436356
36.293026 5.9969935 45.549633
37.819046 6.6411872 45.803741
10.404419 16.938166 51.434784
12.059234 19.034203 52.235397
13.578651 20.065104 52.629166
15.072882 21.078453 53.016232
16.52593 21.788704 53.287521
17.921844 21.625422 53.225155
19.321569 21.462187 53.162804
20.723904 21.248066 53.081017
22.124502 20.456738 52.778755
23.543499 19.656013 52.472908
24.979977 18.952623 52.204239
26.435509 18.133001 51.891171
27.906557 17.415134 51.616966
29.394014 16.703018 51.344963
30.92679 15.496389 50.884071
32.516609 13.873845 50.264317
34.81245 4.0382137 46.507439
36.436619 3.8842678 46.448639
37.937969 4.9385138 46.851322
10.380805 16.190561 52.714802
12.076663 18.71015 53.645977
13.593601 19.741707 54.027214
15.08549 20.756222 54.402153
16.517841 21.148157 54.547001
17.915365 20.983822 54.486267
19.316689 20.819534 54.425552
20.7272 20.887636 54.450722
22.127449 20.205122 54.198479
23.543495 19.408899 53.904217
24.976297 18.758492 53.663845
26.428526 17.918785 53.353512
27.895971 17.200903 53.0882
29.380136 16.480963 52.822128
30.921803 15.055506 52.295315
32.51627 13.345156 51.663216
34.563995 6.5298982 49.144474
36.158646 6.3107691 49.063488
37.3657 9.860487 50.375374
10.439386 16.233353 54.282791
12.093758 18.38406 55.051205
13.608523 19.419291 55.421078
15.098054 20.434948 55.783955
16.509731 20.506124 55.809383
17.908854 20.340733 55.750294
19.324965 20.555805 55.827133
20.729778 20.496876 55.80608
22.130318 19.948156 55.610031
23.543495 19.211132 55.346706
24.972181 18.604057 55.129807
26.421688 17.700499 54.80698
27.885529 16.985134 54.551392
29.361652 16.36109 54.32843
30.921528 14.533783 53.675564
32.978844 6.1241822 50.670948
34.375126 8.3084717 51.451359
35.761204 10.057408 52.076225
37.171093 11.188106 52.480206
10.486876 16.17334 55.801537
12.110012 18.050346 56.449284
13.623386 19.097832 56.810764
15.104666 20.028629 57.131977
16.501608 19.862621 57.074688
17.913942 19.94886 57.10445
19.336105 20.377764 57.25246
20.732363 20.107307 57.159126
22.133173 19.69272 57.016056
23.543503 18.99596 56.775608
24.971085 18.190075 56.497501
26.414898 17.48325 56.253582
27.86363 17.104513 56.122879
29.33602 16.400291 55.87986
30.890079 14.555039 55.243073
32.93153 6.2498055 52.37698
34.232834 9.5268745 53.507881
35.531612 12.012001 54.365482
37.030243 12.010889 54.365097
38.668819 10.791059 53.944141
7.6537037 16.198761 57.337624
9.0220213 15.532259 57.115673
10.722178 17.942177 57.91819
12.126227 17.717596 57.843403
13.638246 18.777817 58.196461
15.094921 19.384693 58.398552
16.500544 19.341362 58.384125
17.930965 19.818724 58.543087
19.339939 19.989048 58.599808
20.734932 19.717974 58.509537
22.136013 19.437822 58.416245
23.543497 18.872679 58.22805
24.967203 18.019199 57.943836
26.396847 17.76005 57.85754
27.832428 17.50032 57.771049
29.3106 16.439156 57.417675
30.846863 14.786722 56.867409
33.912743 12.981003 56.266094
35.304703 13.957836 56.591385
36.726444 14.42823 56.748028
38.44492 12.209515 56.009186
7.600626 15.259605 58.551041
9.030695 15.090271 58.496681
10.482304 15.09342 58.497692
12.10212 16.943819 59.091694
13.653027 18.458286 59.577858
15.085148 18.739264 59.668056
16.521851 19.212963 59.820122
17.947876 19.689373 59.973053
19.343784 19.601521 59.944855
20.737488 19.329334 59.857475
22.137794 19.092407 59.781418
23.543495 18.85457 59.70507
24.957039 18.404022 59.56044
26.376427 18.147522 59.4781
27.808216 17.698843 59.334068
29.285419 16.477678 58.942059
30.80415 15.015684 58.47274
33.734402 14.689522 58.368034
35.019386 16.564922 58.970066
36.522583 15.894639 58.754894
38.041908 15.216663 58.537254
7.6870594 15.435201 60.119129
9.1020842 15.201813 60.046986
10.57779 15.511076 60.142582
12.168386 17.163769 60.653458
13.667754 18.139687 60.955135
15.110956 18.615545 61.102234
16.547523 19.164738 61.271996
17.971426 19.709091 61.440269
19.358383 19.531096 61.385246
20.748131 19.297857 61.313148
22.145626 19.281719 61.308159
23.543493 19.165718 61.272301
24.945787 18.891735 61.187607
26.354321 18.616535 61.102539
27.786137 17.840601 60.862682
29.260447 16.515854 60.453178
30.761925 15.241984 60.059402
33.621956 15.586342 60.165848
34.93557 16.976795 60.595665
36.384865 16.729179 60.519119
37.856541 16.333605 60.396843
6.5325298 17.037786 62.095142
7.9359798 16.924068 62.061333
9.1968222 15.525183 61.645416
10.670536 15.909302 61.759621
12.128026 16.209826 61.848972
13.611001 16.918499 62.059677
15.154897 18.762312 62.607876
16.58382 19.308008 62.770123
18.000193 19.848915 62.930946
19.378777 19.635258 62.867424
20.762714 19.444653 62.810753
22.154615 19.578098 62.850426
23.543499 19.499031 62.82692
24.933937 19.440285 62.809452
26.330515 19.168617 62.72868
27.753269 18.305832 62.472157
29.218456 16.935192 62.06464
30.70858 15.67137 61.688881
32.244904 14.147118 61.235687
33.503754 16.567451 61.955299
34.914707 16.699574 61.994583
36.325382 16.80508 62.025955
37.79644 16.35495 61.89212
39.36937 15.166805 61.538864
5.3812428 18.352629 63.939419
6.832346 18.752659 64.053673
8.0077438 16.997648 63.552414
9.2466002 15.455687 63.112007
10.612583 14.826567 62.93232
12.081609 15.184908 63.034668
13.550956 15.649791 63.167442
15.185712 18.719866 64.044304
16.619734 19.449804 64.252792
18.027792 19.967642 64.400688
19.398985 19.738407 64.33522
20.780899 19.756697 64.340439
22.163717 19.891806 64.379028
23.543505 19.809628 64.35556
24.923958 19.831261 64.36174
26.307104 19.711922 64.327652
27.720921 18.76342 64.056747
29.166128 17.591642 63.722069
30.72423 14.881753 62.948082
32.14653 15.086951 63.006691
33.474319 16.433525 63.391293
34.873615 16.648951 63.45282
36.294388 16.604408 63.440102
37.744671 16.306459 63.355
39.332619 14.950397 62.96769
4.3230877 20.014584 65.836525
5.6960411 20.015057 65.836655
6.9459095 19.100254 65.585999
8.1031227 17.267483 65.083809
9.2564535 15.033487 64.47168
10.559746 13.789945 64.130943
13.490186 14.365646 64.288689
15.211215 18.602066 65.449493
16.646732 19.437553 65.678421
18.054375 20.068512 65.851303
19.425512 20.034628 65.842018
20.798845 20.064686 65.85025
22.172745 20.205246 65.888771
23.543499 20.119518 65.86528
24.913727 20.251873 65.90155
26.283495 20.272312 65.90715
27.681458 19.440449 65.679214
29.107193 18.404896 65.395462
30.746159 13.977863 64.182434
32.051479 15.988961 64.733482
33.432579 16.459326 64.862366
34.810478 16.847878 64.968834
36.260841 16.431517 64.854752
37.717369 16.04343 64.748413
2.1327286 22.634838 67.93541
3.5573711 23.151283 68.070969
4.8428116 22.850752 67.992081
5.9376717 21.190468 67.556282
7.0750275 19.570704 67.131111
8.2767143 18.180553 66.766212
9.2259731 14.250595 65.73465
13.42866 13.065784 65.423653
15.243567 18.589706 66.873611
16.685455 19.639164 67.149086
18.091854 20.41832 67.3536
19.456444 20.468376 67.366745
20.819626 20.505651 67.376526
22.180761 20.43391 67.357697
23.543497 20.456573 67.363647
24.905758 20.476868 67.368973
26.267838 20.484894 67.371078
27.640987 20.157009 67.285011
29.049397 19.203205 67.034653
30.743134 13.518183 65.542404
31.981791 16.523655 66.331299
33.359413 16.89176 66.427925
34.754189 16.975719 66.449966
36.212517 16.408361 66.301041
37.767319 15.090097 65.955009
0.76938438 22.024151 69.152054
2.4317493 23.838427 69.607544
3.7817249 24.021282 69.653458
5.0622787 23.784178 69.593933
6.0363312 21.389875 68.992813
7.216713 20.143164 68.67981
8.20821 17.125118 67.922096
13.425879 12.514456 66.764542
15.304098 19.003538 68.393692
16.735493 20.049986 68.656418
18.121323 20.594734 68.793182
19.47962 20.677252 68.813904
20.835424 20.730167 68.827187
22.189852 20.765266 68.835999
23.543495 20.788652 68.841866
24.896755 20.800344 68.844803
26.250036 20.79941 68.844566
27.61306 20.506945 68.771141
28.992746 19.986046 68.640366
30.461388 18.073132 68.16011
31.90826 17.124126 67.921844
33.27985 17.41375 67.99456
34.690479 17.192072 67.938904
36.145702 16.573879 67.783707
37.832626 13.995144 67.136284
-0.54700089 21.662867 70.431503
1.0966377 23.28454 70.820259
2.5258198 23.898537 70.967453
3.879961 24.142626 71.025963
5.1667976 23.987373 70.988747
6.3381443 23.005917 70.753464
7.4575596 21.470184 70.385315
13.493127 12.866312 68.322754
15.3751 19.582188 69.932716
16.776867 20.311367 70.107513
18.154121 20.851665 70.237038
19.505573 20.975319 70.266678
20.852905 21.036589 70.281372
22.198818 21.092236 70.294708
23.543503 21.111692 70.299377
24.88797 21.110771 70.299149
26.23246 21.110306 70.299042
27.58551 20.852133 70.237152
28.954605 20.361109 70.119446
30.341122 19.751558 69.97332
31.826164 17.862419 69.520447
33.197529 17.979536 69.548523
34.609859 17.60495 69.458725
36.068985 16.844007 69.276306
-0.40065002 21.922478 71.850189
1.1124287 22.897678 72.073006
2.5038509 23.305346 72.166145
3.8213291 23.320471 72.169601
5.1113796 23.160097 72.132965
6.4025364 22.982746 72.092438
7.6556616 22.488567 71.97953
8.8462591 21.389166 71.72834
10.072894 20.396599 71.501564
13.567684 13.319695 69.884644
15.496026 20.923855 71.622025
16.817764 20.570059 71.541191
18.186554 21.105974 71.663635
19.529884 21.229551 71.691872
20.868179 21.24889 71.696289
22.206051 21.268684 71.700813
23.543499 21.276054 71.702499
24.880857 21.275593 71.702393
26.218237 21.275133 71.702286
27.562904 21.054724 71.651932
28.923571 20.581703 71.543854
30.294878 20.104984 71.434937
31.715502 19.042011 71.19207
33.106148 18.670931 71.107285
34.546867 17.825232 70.914062
36.002007 17.022169 70.730576
1.0814762 22.26111 73.2696
2.3878555 22.176247 73.25116
3.744257 22.383663 73.296234
5.0894489 22.547735 73.331886
6.3807545 22.359806 73.291046
7.6699123 22.124285 73.239868
8.9842386 22.054173 73.224625
10.236922 21.408955 73.084412
11.475509 20.477795 72.88205
12.733247 19.531723 72.676453
14.075815 19.418402 72.651825
15.475327 20.131201 72.806732
16.846445 20.61235 72.911285
18.206837 21.089727 73.01503
19.546362 21.252306 73.050369
20.879162 21.271566 73.05455
22.212326 21.362736 73.074364
23.543495 21.368687 73.075653
24.875349 21.299986 73.06073
26.207218 21.299526 73.060631
27.545435 21.106737 73.01873
28.900103 20.635986 72.916428
30.258827 20.279583 72.838974
31.628391 19.877481 72.751595
33.042252 19.014414 72.564026
34.477554 18.12318 72.370346
35.920891 17.348618 72.202026
2.1386623 20.281284 74.192825
3.6082516 21.084137 74.358406
4.9856453 21.399872 74.423531
6.36833 21.801411 74.506348
7.6837902 21.757929 74.497375
8.9975166 21.692204 74.483818
10.331831 21.801414 74.506348
11.605859 21.322807 74.407631
12.854108 20.430109 74.223518
14.245367 21.149158 74.371819
15.514401 20.246454 74.185638
16.871586 20.593811 74.257278
18.226797 21.069477 74.355385
19.562714 21.274878 74.397751
20.890451 21.311855 74.40538
22.218616 21.461823 74.436302
23.543495 21.488678 74.441849
24.869373 21.370703 74.417511
26.196287 21.323723 74.407822
27.528111 21.15831 74.373703
28.874928 20.733124 74.286011
30.222439 20.465288 74.230774
31.586775 20.030569 74.141113
32.991959 19.186752 73.967079
34.40918 18.416443 73.808205
35.855667 17.520069 73.623329
4.8602448 20.105162 75.501381
6.2718258 20.648993 75.607567
7.684269 21.28998 75.732727
9.013607 21.354527 75.745331
10.345934 21.459381 75.765808
11.681915 21.624691 75.798088
12.984461 21.44804 75.763596
14.293349 21.304077 75.735481
15.555059 20.390602 75.557114
16.902573 20.686205 75.614838
18.246599 21.049372 75.685745
19.578922 21.297258 75.734146
20.902927 21.410837 75.756325
22.224842 21.560434 75.785538
23.543497 21.607502 75.794731
24.862925 21.490213 75.771828
26.184889 21.373152 75.74897
27.510941 21.209425 75.716995
28.846256 20.914991 75.659508
30.187874 20.622795 75.602455
31.570219 19.805323 75.442833
32.954597 19.194641 75.323593
34.345219 18.665258 75.220222
35.778656 17.816898 75.054565
6.1753559 19.491489 76.722702
7.609067 20.241333 76.860947
9.0296021 21.017132 77.003967
10.358872 21.107626 77.02066
11.70043 21.343906 77.064217
13.00432 21.2057 77.038734
14.327129 21.276884 77.051865
15.595308 20.533306 76.91478
16.935955 20.827076 76.968933
18.270142 21.118992 77.022751
19.596342 21.360199 77.067223
20.915085 21.499409 77.092888
22.230713 21.630644 77.117081
23.543495 21.686028 77.127289
24.856956 21.568443 77.105614
26.172962 21.45109 77.083977
27.497047 21.163948 77.031036
28.834314 20.716965 76.948639
30.179935 20.294771 76.870796
31.553736 19.581001 76.739204
32.927284 19.074369 76.645798
34.294449 18.767811 76.589279
35.713432 17.999254 76.447594
7.5131207 19.028351 77.973122
8.9518414 19.892778 78.123138
10.374002 20.77705 78.276604
11.690823 20.775686 78.276367
12.895827 19.481838 78.051826
14.240421 19.661938 78.083084
15.608137 20.25831 78.186577
16.946617 20.552731 78.237671
18.27726 20.812996 78.282837
19.609547 21.297731 78.366966
20.924866 21.482449 78.399017
22.235592 21.613213 78.421715
23.543499 21.687231 78.434563
24.851868 21.570105 78.41423
26.163578 21.415836 78.387459
27.483654 21.106564 78.333786
28.826618 20.422863 78.215134
30.172052 19.967073 78.136032
31.537317 19.357595 78.030258
32.90012 18.954786 77.960358
34.253197 18.765091 77.927437
35.736969 17.27494 77.668831
8.8759079 18.778786 79.258026
10.294267 19.567131 79.386383
11.682799 20.223007 79.493164
13.082978 21.178059 79.648659
14.249638 19.309956 79.344505
15.612896 19.860065 79.434074
16.950844 20.160305 79.482956
18.288158 20.5961 79.553909
19.620836 21.178959 79.648804
20.933231 21.403732 79.685402
22.240433 21.595909 79.71669
23.543499 21.688433 79.73175
24.846973 21.557434 79.710419
26.155321 21.331444 79.67363
27.470345 21.049561 79.627731
28.808674 20.367868 79.516747
30.162113 19.678469 79.40451
31.520967 19.135118 79.31604
32.873085 18.836369 79.267403
34.243885 18.39542 79.19561
10.206149 18.273369 80.499161
11.564412 18.527315 80.537796
13.138319 21.35593 80.968208
14.282414 19.272364 80.651169
15.617657 19.462303 80.680069
16.955057 19.768385 80.726639
18.301388 20.435535 80.828156
19.632055 21.060871 80.923309
20.940683 21.285213 80.957443
22.244488 21.508282 80.991386
23.543495 21.689617 81.018982
24.842884 21.473022 80.986023
26.147121 21.247581 80.951721
27.45713 20.992949 80.912979
28.790833 20.313702 80.809616
30.139734 19.623131 80.704544
31.526714 18.571341 80.544495
32.893276 18.092003 80.471565
34.274025 17.567093 80.391693
10.116737 16.961321 81.626709
11.519583 17.586512 81.715225
13.167009 21.227243 82.230728
14.287422 18.867153 81.896561
15.622412 19.065014 81.924576
16.970932 19.595226 81.999649
18.314365 20.271238 82.095367
19.642347 20.916527 82.186729
20.94735 21.13249 82.217308
22.247688 21.344128 82.247269
23.543499 21.549259 82.276321
24.839451 21.331203 82.245453
26.140079 21.112366 82.214462
27.445652 20.885098 82.182281
28.777369 20.16045 82.079681
30.144852 19.056686 81.923401
31.655861 16.083809 81.502457
33.218124 13.275299 81.104797
11.474089 16.635269 82.901062
13.175753 20.866999 83.455856
14.268829 18.146034 83.099129
15.591571 18.111416 83.094589
16.961756 18.953743 83.205017
18.312948 19.771523 83.312233
19.650156 20.696692 83.433525
20.952324 20.902784 83.460541
22.249844 21.084099 83.484314
23.543499 21.267536 83.508362
24.837263 21.073841 83.482971
26.13475 20.899202 83.460075
27.43581 20.728996 83.437759
28.769157 19.886234 83.327271
30.102501 19.380726 83.261002
31.703266 14.85958 82.668266
14.144194 15.995407 84.134361
15.399482 14.621678 83.968559
16.976768 18.767025 84.468872
18.335255 19.830463 84.597214
19.657207 20.455303 84.67263
20.961834 20.888248 84.724884
22.254837 21.092918 84.749588
23.543499 21.29689 84.7742
24.831081 21.194542 84.761856
26.122534 21.012463 84.739883
27.424068 20.635033 84.694321
28.751667 19.832272 84.597443
30.12706 18.449734 84.430573
31.666893 14.945596 84.00766
11.845872 19.58577 85.837845
16.937122 17.548309 85.612984
18.336451 19.394068 85.816681
19.665154 20.243511 85.910431
20.971558 20.888039 85.98156
22.260101 21.131298 86.008408
23.543495 21.393408 86.037331
24.825493 21.263824 86.023033
26.112701 21.017105 85.995804
27.411823 20.559481 85.945297
28.738159 19.686829 85.848991
30.115862 18.191799 85.683998
11.785799 18.488218 86.988571
12.662214 13.384848 86.477684
19.668736 19.895615 87.129471
20.977623 20.716839 87.21167
22.263126 20.960762 87.236092
23.543499 21.204147 87.26046
24.880081 15.62336 86.701782
26.232929 14.851271 86.624481
27.59922 14.168311 86.556122
28.970976 13.697199 86.508957
18.139286 13.76745 87.826363
19.510538 14.409097 87.884064
20.879684 15.592365 87.990479
22.221771 16.562397 88.077713
23.543495 16.851418 88.103706
24.86191 16.878223 88.106117
26.186583 16.579876 88.079285
27.545925 15.378938 87.971283
28.899261 14.921816 87.930176
30.276815 14.185789 87.863983
18.191782 14.540847 89.188705
19.550125 15.191724 89.240662
20.899836 16.080811 89.311646
22.231468 17.017897 89.386444
23.543503 17.345165 89.412575
24.851831 17.37212 89.414719
26.166567 17.065556 89.390259
27.509724 16.057564 89.309784
28.858397 15.421283 89.258987
30.23337 14.536466 89.188354
18.211182 14.52911 90.471069
19.573357 15.46041 90.536072
20.915354 16.354271 90.598473
22.238344 17.211027 90.658279
23.543495 17.529613 90.680511
24.845104 17.551315 90.682022
26.152325 17.281555 90.663193
27.480837 16.510319 90.60936
28.841471 15.353409 90.52861
30.228296 14.156554 90.445061
18.201075 13.809922 91.701813
19.57416 15.014069 91.773895
20.93103 16.640865 91.871262
22.244854 17.372169 91.915024
23.543499 17.686466 91.933838
24.838428 17.730057 91.936447
26.138069 17.503048 91.922859
27.457058 16.80587 91.881134
28.842518 14.855841 91.76442
19.548462 13.713264 92.968491
20.935516 16.391296 93.102325
22.247728 17.186455 93.142059
23.543503 17.52483 93.158974
24.835396 17.561043 93.160782
26.133072 17.281809 93.146828
27.448578 16.613598 93.113434
28.865868 13.818351 92.97374
20.935032 15.902572 94.319534
22.248951 16.843817 94.357346
23.543499 17.182795 94.370956
24.833935 17.242022 94.373337
26.129562 16.990501 94.363235
27.445362 16.253164 94.333618
20.886145 13.055568 95.465439
22.241095 15.615722 95.54335
23.543495 16.333672 95.565201
24.837944 16.391171 95.566956
26.145914 15.73197 95.54689
27.492929 14.244255 95.50161
22.206224 11.740499 96.689178
23.543495 14.10705 96.738327
24.856041 14.159201 96.73941
26.215643 11.858045 96.69162
35.946793 19.954563 4.7665482
18.702259 20.655804 15.751129
20.459457 20.713329 16.384773
22.307571 20.638136 16.336357
24.300528 20.390114 15.404747
33.19622 18.76004 8.4911957
35.00938 18.843346 9.2711563
37.893253 17.966675 5.1954613
16.753307 19.008999 16.429272
18.339956 19.357174 18.461691
19.953533 19.605499 20.001919
21.80768 19.468472 19.66835
23.988379 18.913054 17.312653
31.736872 16.304382 5.7792587
31.265717 18.815498 18.195976
33.19968 18.684132 17.905624
37.099861 16.718014 8.8481331
14.329207 14.153531 1.8203545
14.888487 17.211823 16.361591
16.405968 17.759285 19.231272
17.934383 18.187494 21.540087
19.40724 18.636101 23.934736
21.375086 18.261026 22.534513
23.543348 17.655781 20.085512
26.128716 16.580126 15.494507
29.319431 17.116905 18.628561
30.981953 17.266624 19.648058
32.784313 17.254684 19.930792
34.789398 17.043058 19.309092
14.122549 12.51765 3.5342407
14.58898 15.932803 18.938503
15.723369 17.264542 25.124592
15.353107 21.211454 42.756329
16.646488 21.601503 44.748989
18.057985 21.741558 45.642666
22.925293 16.708611 23.986282
27.681927 15.028172 17.344631
28.758764 15.933744 21.608604
30.514122 15.952202 22.021626
32.391514 15.834751 21.848087
34.542885 15.443465 20.497965
36.851929 14.932994 18.642996
12.214815 10.208719 1.9430504
14.021868 10.617357 4.0281105
13.69263 16.164724 27.656132
13.56516 20.146145 44.634762
14.955423 20.362675 45.821007
16.173351 20.858292 48.166679
17.479568 21.127903 49.563805
19.033302 20.970819 49.185291
20.746672 20.601482 47.930393
27.1402 13.867709 20.376759
28.288521 14.690874 24.108118
30.057058 14.667393 24.340567
32.026772 14.414597 23.631582
34.114304 14.05829 22.502728
36.89827 13.010468 18.551783
13.958209 8.607707 4.0904922
11.98242 18.691704 44.805443
13.2906 19.131712 46.844345
14.519846 19.656147 49.212402
15.629195 20.322323 52.135403
16.989573 20.439934 52.870541
18.480446 20.326065 52.68708
19.991173 20.197115 52.445908
21.763178 19.709249 50.791508
23.782028 18.945925 48.061207
29.530542 13.513014 27.006636
31.530067 13.183069 26.038483
34.031166 12.311396 22.957447
10.481367 16.98933 44.024914
11.676866 17.8356 47.545612
12.888295 18.470146 50.244755
14.068373 19.05591 52.74802
15.27488 19.489016 54.661728
16.68788 19.471203 54.858196
18.159334 19.355362 54.683891
19.524647 19.425507 55.213932
21.013922 19.300484 55.007225
22.862942 18.681993 52.946404
24.803751 18.010668 50.697079
26.922085 17.186687 47.886646
34.288719 10.154478 21.885803
2.0754204 22.576286 69.206306
3.2648659 22.798876 70.260056
4.4770432 22.808434 70.52375
10.252431 15.986589 46.173756
11.306316 17.220633 50.973396
12.526231 17.779348 53.28619
13.748897 18.227514 55.18729
14.950852 18.64283 56.962013
16.393494 18.525959 56.797646
17.737545 18.603418 57.33934
19.010233 18.790007 58.274509
20.51022 18.596043 57.833485
22.033411 18.391006 57.355541
23.882801 17.754841 55.331413
25.884953 16.985228 52.838444
27.896887 16.281431 50.592724
30.060877 15.464444 47.953552
0.76216888 21.732399 70.567139
1.9439602 21.999464 71.74437
3.1469212 21.972805 71.875374
4.3586941 21.909168 71.875816
5.5838165 21.807556 71.742996
6.8258991 21.671137 71.488922
9.972682 15.197443 48.934414
11.038064 16.378153 53.356453
12.233608 16.969181 55.694588
13.439415 17.424732 57.550255
14.681654 17.722086 58.847149
16.00572 17.806759 59.398998
17.157227 18.20295 61.032219
18.241158 18.663338 62.882248
19.759277 18.353968 62.061722
21.300789 18.045719 61.249607
22.264482 18.611418 63.453552
23.658051 18.525723 63.409336
24.536312 19.120922 65.70269
25.947195 18.997385 65.526421
27.139664 19.143843 66.274429
-0.51711464 20.673473 71.097931
0.67178726 20.941849 72.243065
1.8583927 21.028275 72.763046
3.0609818 20.948986 72.717072
4.2512341 20.975313 73.031403
5.4421043 20.989338 73.303596
6.6649055 20.870516 73.125687
7.8848848 20.792767 73.088257
9.1083908 20.72221 73.076195
11.97777 16.106997 57.769932
13.154359 16.608978 59.714821
14.288164 17.122627 61.691719
15.397879 17.605671 63.559013
16.477909 18.075796 65.376358
17.168352 19.191525 69.337051
18.059088 19.822712 71.671783
19.162407 20.037165 72.615669
20.376484 20.059803 72.921814
21.551781 20.135496 73.402817
22.644182 20.316017 74.228149
23.875946 20.298992 74.401436
25.203337 20.165722 74.193596
26.465199 20.121403 74.278839
27.973713 19.802692 73.468369
29.894115 19.06427 71.294327
34.326809 15.771656 60.823261
35.769093 15.718591 60.912415
0.61400795 19.630161 72.102806
1.7831745 19.96833 73.439217
2.9729004 19.956848 73.625137
4.1615639 19.956848 73.84877
5.3469181 19.973284 74.126045
6.5204506 20.034489 74.548889
7.6802273 20.129719 75.081482
8.8653889 20.1208 75.275017
10.050663 20.113438 75.473709
11.214476 20.163559 75.858139
12.362159 20.243549 76.338142
14.979868 17.079695 66.385384
15.395016 18.866692 72.363136
16.433878 19.225605 73.743515
17.450901 19.577114 75.095337
18.446899 19.921219 76.418762
19.517984 20.108082 77.23719
20.619616 20.229378 77.844894
21.725412 20.332392 78.393036
22.824219 20.434757 78.937714
23.990952 20.440662 79.17672
25.280838 20.295368 78.939713
26.634144 20.088093 78.510017
28.297224 19.549547 77.044937
29.789278 19.237843 76.29657
31.548685 18.671757 74.75869
36.196579 15.253782 64.34893
37.906742 14.914457 63.550419
0.55881882 18.247009 71.772705
1.7373924 18.58367 73.064476
2.907341 18.798538 73.967522
4.0729752 18.945183 74.652924
5.2493668 18.982714 74.99353
6.4138641 19.06097 75.461349
7.5636539 19.174372 76.038101
8.6944256 19.325033 76.729706
9.81707 19.46841 77.396629
10.952912 19.548561 77.865074
12.133076 19.504677 77.947632
13.098776 19.95797 79.570061
14.733177 18.928989 76.607048
15.808057 19.14435 77.493774
16.939142 19.228344 77.973534
18.065363 19.310558 78.446732
19.037731 19.634544 79.659424
20.040834 19.876064 80.615799
21.110456 19.99535 81.196167
22.183331 20.098461 81.725754
23.254959 20.193638 82.229874
24.44768 20.126587 82.241158
25.736969 19.947849 81.915619
27.044792 19.762077 81.571213
28.708088 19.19261 80.074142
30.526257 18.499144 78.212097
32.28566 17.91716 76.693336
33.686546 17.735415 76.379234
1.6898861 17.193546 72.725372
2.8641014 17.448475 73.727249
4.0391865 17.582924 74.360199
5.1817703 17.844366 75.376083
6.3080502 18.099363 76.369156
7.4490089 18.227631 76.976753
8.5827808 18.350666 77.566978
9.6900196 18.530666 78.326714
10.808618 18.644047 78.884506
11.961178 18.649963 79.119476
12.648289 19.75983 82.648773
14.451561 18.252098 78.369156
15.519398 18.457191 79.198349
16.614235 18.584082 79.79306
17.655993 18.790901 80.622635
18.614899 19.114307 81.793793
19.580778 19.391493 82.824654
20.595707 19.565645 83.549103
21.570253 19.781113 84.392532
22.551449 19.967327 85.147598
23.524704 20.147392 85.882324
24.675718 20.088114 85.917282
25.986877 19.840134 85.404282
27.438976 19.448009 84.476219
29.549385 18.35009 81.509827
31.196177 17.831247 80.230194
32.7276 17.468702 79.407669
34.23053 17.159378 78.742828
2.8589783 15.736092 72.464951
3.9969749 16.259804 74.227066
5.1553535 16.473816 75.077583
6.2758999 16.801493 76.256973
7.3577461 17.200321 77.639389
8.4781923 17.363672 78.333031
9.5912571 17.516243 78.993423
10.691708 17.676481 79.674088
11.862335 17.620581 79.729095
12.377127 19.188969 84.461884
14.067516 17.843922 80.804138
15.212223 17.842999 81.016777
16.29701 17.96101 81.569687
17.30825 18.201553 82.470955
18.307447 18.435558 83.350632
19.213028 18.799477 84.596695
20.108641 19.141537 85.776268
21.028164 19.414261 86.755394
32.892616 4.0468822 43.563805
30.250843 9.8232136 60.140785
28.918993 13.396645 70.452759
30.342728 13.229315 70.226013
31.661366 13.201488 70.391853
28.224638 18.674667 85.923203
30.264833 17.646158 83.266914
32.521328 16.457603 80.178253
33.86319 16.29961 79.963699
4.2546139 12.743721 67.923027
5.1988163 14.671961 73.605583
6.2541733 15.438988 75.993919
7.3323021 15.899117 77.510376
8.3590031 16.443146 79.256676
9.4798412 16.553036 79.781281
10.575827 16.717407 80.456741
11.721008 16.716095 80.668442
12.19631 18.425085 85.636848
13.857373 17.077724 82.102783
14.96537 17.133236 82.469727
16.153879 17.016178 82.359146
17.038929 17.498449 83.902481
17.969681 17.842052 85.058533
18.861217 18.215519 86.29248
30.129707 1.6504002 41.12088
31.246723 2.4342184 43.568752
31.846771 3.9075875 47.887955
30.201897 8.4140263 60.443886
28.865465 12.118007 70.766922
30.323164 11.902002 70.4245
31.68462 11.822674 70.454163
35.19294 9.1823397 63.576344
30.882957 15.741644 81.491577
32.42046 15.339569 80.632957
33.863029 15.066805 80.125656
35.560272 14.547657 78.96286
7.314106 14.552586 77.289513
8.3522739 15.097327 78.988312
9.4081831 15.462588 80.195084
10.460953 15.76672 81.232544
11.548147 15.917841 81.854172
12.073545 17.529488 86.401123
13.701357 16.203568 83.047874
14.853342 16.145082 83.103188
16.132135 15.824841 82.459915
16.936501 16.489933 84.446884
17.766628 17.029654 86.092682
28.209373 0.43994617 42.270134
29.593903 0.82271862 43.587059
30.698109 1.6164293 45.985424
31.061363 3.4658613 51.158157
30.152845 7.0022373 60.747555
28.734787 10.945322 71.363586
30.209042 10.696619 70.954536
31.525545 10.670151 71.129166
34.531891 8.5583458 65.866241
35.480011 9.050561 67.403122
31.152342 15.563946 84.565727
34.018654 13.656623 79.84082
8.3603783 13.674668 78.55761
9.3973961 14.15353 80.031548
10.415043 14.602062 81.420853
11.457249 14.897528 82.405991
11.991596 16.533659 86.875961
13.589267 15.234015 83.705734
14.785504 15.06069 83.467911
15.952858 14.973551 83.454819
16.733391 15.694291 85.526466
25.719706 0.40310669 46.38073
27.236683 0.49318123 46.906677
28.847916 0.40997124 46.987591
30.162722 0.82502842 48.343403
29.113102 4.9255886 59.096825
29.639139 6.2867346 62.830849
28.604742 9.7770853 71.957512
30.105183 9.4807091 71.448303
31.367435 9.5235519 71.800201
33.483772 8.4742193 69.396034
31.072208 13.062702 81.196259
31.663546 13.768815 83.193245
34.14193 12.267745 79.650787
8.4686584 11.808872 77.049347
9.4264164 12.681534 79.48645
10.461992 13.119307 80.813469
11.484877 13.51778 82.036453
11.942492 15.448994 87.117149
13.627224 13.880802 83.37838
14.789112 13.803616 83.397354
15.901261 13.84943 83.725082
23.406378 0.28566837 50.057873
24.957476 0.23383427 50.215641
26.414064 0.36668682 50.833267
27.837513 0.54514122 51.562599
28.690495 1.6790791 54.655716
21.673304 15.497551 89.073471
22.390928 16.064787 90.675491
23.191784 16.459461 91.846886
24.217199 16.501787 92.149277
25.334583 16.415045 92.135155
26.595387 16.146343 91.677429
31.146746 11.730299 81.112747
31.885372 12.2848 82.685791
34.089531 11.072599 79.965424
9.5949211 10.644014 77.605728
10.558341 11.438466 79.778305
11.52282 12.08659 81.584312
11.925121 14.269608 87.131828
13.687503 12.450309 82.903252
14.800192 12.51746 83.280899
15.806421 12.824909 84.240845
22.636095 0.30819702 54.152122
24.141718 0.2607584 54.316483
25.606041 0.29921055 54.688358
27.06835 0.33738422 55.059158
20.458105 14.571095 89.492889
21.061769 15.36847 91.605118
21.902229 15.714898 92.631577
22.819813 15.913285 93.301483
23.798622 16.005398 93.716507
24.830481 16.015432 93.935791
25.96833 15.881109 93.813179
27.327438 15.467978 93.033348
29.774437 13.71521 89.100342
11.689023 10.212768 80.128792
11.940634 12.983068 86.911011
13.709612 11.104965 82.677971
14.807236 11.230062 83.188599
15.87011 11.422417 83.856201
21.575972 1.0802927 59.786945
23.033154 1.0048428 59.877663
18.283886 13.431467 89.194519
19.175562 13.794488 90.244827
20.015495 14.215087 91.425369
20.750349 14.777139 92.930023
21.570602 15.147468 93.98465
22.500259 15.31323 94.562538
23.495071 15.366754 94.879822
24.547668 15.332164 94.993759
25.679594 15.189578 94.860085
26.91396 14.919909 94.436722
29.164335 13.35314 91.051132
12.018129 11.489353 86.245697
13.790924 9.5748968 82.06189
14.894364 9.7180376 82.607239
16.151737 9.4591188 82.232864
20.86871 1.1635838 63.54623
22.240416 1.1872663 63.860176
18.030954 12.779419 90.420959
18.95919 13.06036 91.258507
19.888611 13.311022 92.024826
20.624681 13.881394 93.509155
21.468107 14.217836 94.4617
22.401497 14.379042 95.017685
23.389511 14.441875 95.35183
24.440174 14.406156 95.465218
25.55373 14.282917 95.383926
26.765198 14.033465 95.023247
28.258404 13.426311 93.871536
30.490494 11.91015 90.713959
13.287545 9.7489519 85.297607
14.904083 8.3943825 82.497452
16.352543 7.6516962 81.06794
20.150892 1.3590422 67.361595
21.610195 1.094635 67.030197
17.935608 11.814481 90.905685
18.835197 12.157454 91.860931
19.771944 12.39469 92.580841
20.549963 12.899451 93.883987
21.379148 13.268961 94.886795
22.300566 13.45233 95.480385
23.291706 13.508888 95.796471
24.333107 13.483769 95.93483
25.432461 13.375021 95.892441
26.616314 13.154286 95.609306
27.986458 12.694057 94.81237
30.480301 10.779024 90.892853
14.77385 3.9398618 75.41436
15.505598 5.3859725 78.772812
16.679787 5.4711709 79.183472
17.933847 5.3483014 79.145752
18.87767 5.9611807 80.688324
17.934605 10.646855 90.946831
18.770908 11.137868 92.197754
19.717224 11.362344 92.87574
20.520699 11.83383 94.076996
21.31514 12.278425 95.21666
22.216476 12.50082 95.881561
23.207968 12.556424 96.19194
24.257973 12.515241 96.29776
25.364485 12.391549 96.230446
26.549202 12.162851 95.943985
27.976095 11.609592 94.980225
17.307257 2.4171686 75.590813
18.590149 2.3364477 75.657349
18.046705 9.2169161 90.456833
18.856434 9.7988977 91.869629
19.700666 10.252209 93.010239
20.502695 10.743506 94.225182
21.313047 11.174472 95.311028
22.215816 11.404835 95.979797
23.208015 11.464906 96.296555
24.266451 11.412813 96.382874
25.375673 11.285651 96.316147
26.555767 11.061696 96.053131
27.977304 10.504795 95.114433
19.851418 8.7888823 92.441872
20.488045 9.6424065 94.360268
21.310942 10.065106 95.405846
22.215157 10.303581 96.078506
23.210968 10.363256 96.391602
24.272697 10.308508 96.475983
25.384613 10.177754 96.409637
26.565369 9.9508362 96.153595
28.076933 9.2495041 94.960068
20.02372 4.8261652 86.798737
20.022112 7.2598257 91.791069
20.543566 8.3939695 94.215866
21.374533 8.8227024 95.251747
22.244211 9.1418486 96.070091
23.235172 9.2184486 96.413681
24.306643 9.1514893 96.47789
25.452972 8.9669762 96.315033
26.725733 8.596694 95.794861
20.835701 6.6395721 93.129585
21.519823 7.4055338 94.788849
22.390499 7.7487698 95.638512
23.411526 7.7888718 95.910736
24.510921 7.6886177 95.917252
25.686754 7.4676781 95.696983
23.105209 5.2270641 93.155617
23.905907 5.7437334 94.312347
21.234379 19.430714 86.771149
22.638777 19.975834 85.946106
23.926216 20.237696 85.66507
24.880703 19.842611 86.634109
23.736469 15.654276 94.787994
24.856613 15.766829 94.773834
11.921736 17.493504 86.3638
18.91081 18.080276 86.474953
20.720345 19.593899 83.710205
21.973957 19.765141 83.594757
23.240786 19.946756 83.460503
21.574661 14.416583 94.492172
22.481405 14.149131 95.211441
23.465698 14.042127 95.61615
24.555096 14.123094 95.654999
25.775469 14.412546 95.290787
27.296583 15.155047 94.053726
2.2914906 22.643724 71.053482
11.847336 15.922632 87.014656
17.795496 16.874083 86.128738
20.273508 19.986395 80.036377
21.602882 20.246693 79.737961
22.913231 20.44104 79.574936
20.629101 13.488018 93.797302
21.38723 12.929922 95.116013
22.25279 12.61518 95.942108
23.253067 12.560369 96.245804
24.316898 12.615687 96.329384
25.444132 12.768078 96.220322
26.772738 13.218962 95.520142
1.0347404 20.260189 72.904716
2.2623329 19.987417 73.72644
3.5202713 20.175236 73.556335
4.7583885 20.120377 73.908081
5.9869843 20.018711 74.359406
7.1702213 19.679789 75.316063
8.2959337 19.131994 76.714272
9.4203949 18.702461 77.856102
10.509709 18.216461 79.113625
11.674335 18.099865 79.585258
11.844255 14.621166 87.151398
13.803844 17.294941 81.72921
14.865438 16.970566 82.631454
16.114849 17.199326 82.371078
16.831097 16.044415 85.007141
19.696703 20.163895 76.624298
20.999273 20.295082 76.585228
19.079155 13.527592 90.88102
19.829002 12.858823 92.470505
20.530033 12.159959 94.116005
21.312647 11.675465 95.312561
22.206413 11.429277 96.013908
23.194973 11.363752 96.341805
24.255171 11.419589 96.420334
25.370682 11.55725 96.332062
26.570845 11.811589 96.007004
28.089176 12.507609 94.785217
-0.13327789 19.475147 71.352898
1.1038361 19.047955 72.537086
2.3184395 18.61042 73.740074
3.5424881 18.493122 74.231613
4.7401333 18.211788 75.083519
5.9073792 17.823339 76.168282
7.0452099 17.380003 77.369743
8.1621361 16.944988 78.548752
9.2585087 16.517107 79.707985
10.325844 16.060413 80.925941
11.365198 15.586715 82.176506
11.877751 13.45312 87.024872
13.513035 15.07038 83.730576
14.726879 15.26349 83.528854
15.93353 15.411679 83.425827
18.966606 20.054325 73.656364
20.248386 20.076 73.849243
17.972546 12.287094 90.768509
18.803705 11.780978 92.052109
19.716591 11.487075 92.878433
20.493395 10.965537 94.186142
21.275492 10.501134 95.367607
22.160662 10.25411 96.084305
23.139582 10.181855 96.429405
24.190559 10.229087 96.521942
25.297462 10.357492 96.444206
26.476324 10.581418 96.167274
27.93236 11.179521 95.109116
-0.06293869 18.27841 70.922401
1.1630478 17.641176 72.613411
2.3896103 17.443825 73.296448
3.6009331 17.198673 74.086166
4.7988987 16.949251 74.883148
5.9640503 16.572378 75.966042
7.088295 16.078512 77.309357
8.178606 15.545421 78.736176
9.2553768 15.073483 80.020309
10.30271 14.583155 81.341042
11.370161 14.252794 82.298965
11.934359 12.364551 86.732422
13.570779 13.939486 83.431
14.746772 14.024347 83.457764
15.894642 14.025805 83.67038
19.516668 19.968586 70.732666
20.848703 20.03529 70.830414
17.925297 11.014208 90.954147
18.778805 10.579267 92.111481
19.674767 10.269431 92.990097
20.435654 9.7422352 94.341438
21.268919 9.3893805 95.306854
22.146614 9.1414232 96.040222
23.126919 9.0782623 96.3694
24.163155 9.1060276 96.500732
25.248634 9.2043324 96.47966
26.389381 9.3738947 96.305695
27.777567 9.8703747 95.42907
30.6283 12.267451 90.471985
1.2414169 16.611902 71.828972
2.4661598 16.341133 72.698303
3.6770954 16.076939 73.549515
4.8501797 15.636034 74.810577
6.0123615 15.274172 75.883072
7.1381931 14.821959 77.161919
8.2125111 14.2425 78.731323
9.3024502 13.856507 79.847168
10.374784 13.482011 80.932571
11.442621 13.160334 81.892502
12.0242 11.380189 86.202332
13.645073 12.857118 83.022331
14.753004 12.755867 83.469681
15.749394 12.390612 84.518997
19.942101 19.525917 68.471397
21.296976 19.592392 68.56945
17.958897 9.9218807 90.759888
18.858648 9.592845 91.705551
19.76438 9.3078461 92.548431
20.449673 8.6582689 94.210098
21.310408 8.3653326 95.063248
22.21011 8.1610956 95.714432
23.198874 8.1123619 96.01545
