# .PCD v0.7 - Point Cloud Data file format
VERSION 0.7
FIELDS x y z
SIZE 4 4 4
TYPE F F F
COUNT 1 1 1
WIDTH 1610
HEIGHT 1
VIEWPOINT 0 0 0 1 0 0 0
POINTS 1610
DATA ascii
638.65948 314.84915 52.568169
638.92194 314.77112 53.946224
640.25476 314.37485 55.51157
642.13202 312.37976 37.955727
642.01886 312.41473 39.333221
641.05719 312.71201 40.669651
640.6543 312.83655 42.015953
640.04987 313.02338 43.339401
638.72693 313.43231 44.592098
637.78003 313.72504 45.848896
637.45959 313.82407 47.148174
637.02551 313.95825 48.427292
636.6543 314.07303 49.704399
636.38672 314.15573 50.987198
636.67493 314.06662 52.345867
636.1153 314.23962 53.576447
637.18549 313.90881 55.071629
637.68048 313.7558 56.486694
638.68121 313.44644 58.010506
639.39532 313.22571 59.498489
639.73328 313.12125 62.275764
638.38202 313.53894 63.308048
637.74652 313.73538 64.488281
638.66663 313.45096 66.059921
640.5752 311.43088 31.085363
640.08087 311.58957 32.465851
638.71631 312.02759 33.844982
639.4649 311.78729 35.193043
640.33179 311.509 36.559498
639.71124 311.70822 37.911816
639.20972 311.8692 39.254074
638.65479 312.04733 40.582474
638.00702 312.25528 41.892937
637.40112 312.4498 43.191525
636.70886 312.67203 44.46941
636.12982 312.85791 45.741859
635.61847 313.02203 47.008053
635.14563 313.17383 48.266987
634.75421 313.29947 49.525345
634.52515 313.37302 50.796974
634.28979 313.44858 52.062454
634.15192 313.49283 53.338123
634.8894 313.25607 54.760181
635.86078 312.94427 56.241653
636.84589 312.62802 57.74791
636.85107 312.62634 59.075733
637.39301 312.45239 60.519798
637.38489 312.45502 61.850929
636.68243 312.68051 63.015839
636.15363 312.85025 64.208252
636.18213 312.84109 65.534592
637.14044 312.53348 67.115707
633.24518 312.43002 2.9181252
641.64471 309.63293 28.257824
640.28162 310.08685 29.707224
639.70642 310.27838 31.098413
635.47809 311.68646 32.55999
635.1925 311.78156 33.879784
636.27313 311.42169 35.193043
637.5611 310.9928 36.53339
637.09839 311.14688 37.863152
636.46539 311.35767 39.176506
635.96075 311.52573 40.481236
635.57043 311.6557 41.780975
635.41962 311.7059 43.088211
634.76984 311.9223 44.352055
634.15674 312.12646 45.604416
633.55475 312.32693 46.84388
633.08386 312.48373 48.084572
633.22644 312.43625 49.391659
633.3689 312.38882 50.701984
632.96259 312.52411 51.933998
632.55347 312.66037 53.156273
632.94037 312.53149 54.505722
633.60992 312.30853 55.915733
636.89362 311.21509 57.849197
636.95685 311.194 59.194942
637.12939 311.13654 60.565868
636.22192 311.43875 61.693741
635.24518 311.76401 62.784225
635.27985 311.75247 64.106812
635.43677 311.7002 65.462357
635.99957 311.51279 66.932861
632.32916 311.38113 0.47728348
631.28265 311.74228 2.0754585
631.71948 311.59155 3.2238312
632.25739 311.40591 4.354372
632.80231 311.21786 5.4954185
633.35254 311.02798 6.6476345
633.90814 310.83624 7.8111801
643.97894 307.36087 25.256367
641.67261 308.15677 26.834772
640.93427 308.41156 28.270206
634.87354 310.50308 29.933115
634.45697 310.64685 31.262444
634.17212 310.74515 32.579189
633.74341 310.8931 33.891033
634.17438 310.74435 35.193039
634.95886 310.47363 36.50901
636.21338 310.04071 37.853771
634.2655 310.71292 39.117046
634.07568 310.77844 40.416328
633.94214 310.82449 41.714493
633.79407 310.87561 43.008575
633.32831 311.03635 44.273727
633.17554 311.08908 45.556934
633.01202 311.14551 46.835526
632.77338 311.22784 48.101742
632.51282 311.31778 49.359699
632.31989 311.38434 50.620991
631.88013 311.5361 51.841019
631.54883 311.65042 53.068378
631.94177 311.51483 54.412865
631.99475 311.49652 55.703918
637.02588 309.76035 57.967842
637.28241 309.67181 59.36055
636.85767 309.81839 60.610538
636.03204 310.1033 61.758705
635.328 310.34625 62.917236
635.25513 310.37143 64.219025
635.57434 310.26126 65.622681
636.32013 310.00388 67.151215
631.41748 310.3418 0.61824417
631.64697 310.25983 1.8300095
631.3075 310.38113 3.2110596
631.53607 310.29947 4.4270935
631.76556 310.21747 5.6481476
631.99561 310.13525 6.8743668
632.40265 309.98984 8.0630302
632.94543 309.7959 9.2297878
633.49304 309.60025 10.407999
634.31213 309.30762 11.542503
645.43115 305.33496 22.214087
643.46228 306.03842 23.837778
642.2489 306.47192 25.355106
635.29169 308.95764 27.241776
634.49713 309.24152 28.612783
633.71393 309.52133 29.964951
633.25458 309.68546 31.287863
633.1377 309.7272 32.592285
633.08746 309.74518 33.89325
633.19611 309.70636 35.193047
633.30493 309.66745 36.495354
632.94586 309.79575 37.789383
633.0722 309.75061 39.091915
633.19836 309.70554 40.397362
633.39191 309.63638 41.709602
633.42889 309.62317 43.015465
633.32568 309.66006 44.310871
633.18304 309.711 45.600262
633.01886 309.76968 46.884125
632.77167 309.858 48.154644
632.38184 309.99728 49.40136
632.2403 310.04785 50.673443
631.85632 310.18503 51.905937
630.98169 310.49753 53.050377
630.823 310.55423 54.298443
631.3053 310.3819 55.661118
639.39587 307.49127 58.526012
637.55084 308.15045 59.515678
636.61603 308.48447 60.662163
635.92084 308.73285 61.842346
635.57025 308.85809 63.089939
635.65326 308.82846 64.439407
635.86475 308.75287 65.824875
636.94464 308.36703 67.455498
631.33337 309.00778 0.50172424
631.57751 308.91757 1.7131157
631.10425 309.09247 3.1377602
631.33295 309.00793 4.356432
631.56256 308.92307 5.5801563
631.79272 308.83801 6.8090553
632.03137 308.74985 8.0412369
632.29053 308.65405 9.2741737
632.55133 308.55765 10.512751
632.91388 308.42368 11.736172
634.00372 308.0209 12.824852
646.90308 303.25363 19.076908
644.96716 303.96909 20.766121
635.44208 307.48932 23.201199
634.84064 307.71158 24.589323
634.19446 307.95041 25.967155
633.65283 308.15057 27.322765
633.46838 308.21872 28.645149
633.3194 308.2738 29.961628
633.21051 308.31403 31.273262
633.10187 308.35419 32.582371
633.09961 308.35504 33.88773
633.20917 308.31454 35.193043
633.31848 308.27414 36.500889
633.27332 308.29083 37.807686
632.90979 308.42517 39.102379
633.0451 308.37518 40.411758
633.328 308.27063 41.732811
633.40906 308.24066 43.046394
633.31897 308.27396 44.347992
633.19067 308.32138 45.643959
633.02399 308.383 46.932953
632.7699 308.47687 48.207977
632.38782 308.61807 49.460815
632.42877 308.60297 50.763577
631.2514 309.03809 51.883934
630.66565 309.25455 53.072922
630.48615 309.32089 54.318882
631.48157 308.953 55.778316
639.88794 305.84625 61.487022
636.72888 307.01376 63.486835
636.42108 307.1275 64.755768
636.40912 307.13193 66.096344
631.36877 307.61887 0.34672928
631.55505 307.54773 1.5810394
631.15424 307.70081 2.9902725
631.33282 307.6326 4.2285728
631.55945 307.54605 5.4581738
631.81793 307.4473 6.6848907
632.07764 307.34811 7.9173164
632.33807 307.24863 9.1556072
632.60022 307.1485 10.399578
632.85046 307.05289 11.652134
633.09967 306.95773 12.91073
633.69446 306.73053 14.110826
634.81866 306.30112 15.232443
647.00848 301.64502 14.579365
646.8728 301.69684 16.072281
635.30042 306.1171 19.157358
634.8205 306.30042 20.555037
634.20789 306.53442 21.956978
633.81342 306.68509 23.321848
633.74615 306.71078 24.647125
633.67938 306.7363 25.970806
633.53741 306.7905 27.298159
633.36536 306.85623 28.62398
633.27271 306.89163 29.942101
633.16663 306.93213 31.258533
633.11188 306.95306 32.571312
633.1123 306.95288 33.882172
633.22192 306.91101 35.19305
633.15894 306.93509 36.504459
633.08514 306.96326 37.814163
632.74701 307.09244 39.112915
632.97992 307.00348 40.430374
633.26361 306.89508 41.756195
633.38947 306.84705 43.077599
633.30493 306.8793 44.384815
633.19836 306.92001 45.688019
633.3299 306.86978 47.013657
633.53741 306.79053 48.351181
633.37219 306.85364 49.645866
632.25159 307.28168 50.803436
630.8736 307.80798 51.896072
630.40662 307.98639 53.104919
630.66193 307.88885 54.428864
632.59125 307.15192 56.070076
631.41986 306.2114 0.18549347
631.6925 306.10385 1.3993149
631.95312 306.00104 2.6230202
631.67523 306.11066 4.0036736
631.85577 306.03946 5.2547607
632.03735 305.96783 6.5098038
632.21906 305.89615 7.7690449
632.40179 305.82407 9.0322838
632.64819 305.7269 10.285679
632.89789 305.62836 11.544119
633.14832 305.5296 12.80826
633.40027 305.43021 14.077957
633.65295 305.33054 15.353409
634.44141 305.01953 16.547197
634.20099 305.11435 17.915533
633.88324 305.23972 19.289074
633.81604 305.2662 20.623039
633.7489 305.29269 21.955418
633.6814 305.31931 23.286268
633.61444 305.34573 24.615505
633.54755 305.37213 25.943165
633.42133 305.42191 27.273417
633.3186 305.46243 28.59935
633.22565 305.49908 29.92243
633.14923 305.52924 31.24276
633.12195 305.54001 32.560154
633.11786 305.5416 33.87664
633.12329 305.53946 35.193047
633.3537 305.44858 36.512192
633.58508 305.3573 37.83675
632.63147 305.73346 39.125206
633.04932 305.56866 40.455433
633.5036 305.38947 41.797543
633.88141 305.24042 43.144894
634.03632 305.17932 44.482864
634.28302 305.082 45.833023
634.40143 305.03531 47.175453
634.3197 305.06754 48.497295
633.78058 305.28018 49.758503
631.80737 306.05856 50.806236
631.14636 306.31931 52.007034
630.60425 306.53314 53.211826
631.01489 306.37115 54.570786
631.50513 304.77716 0.012081146
631.77802 304.66608 1.2319221
648.59277 297.82144 0.61732101
647.46851 298.27908 2.4105339
633.07605 304.1377 7.4433899
633.26691 304.06 8.720047
633.37823 304.01468 10.018913
633.25049 304.06668 11.370831
633.12439 304.11801 12.719404
633.37915 304.01431 13.99361
633.63501 303.91016 15.273577
633.88428 303.80869 16.560646
633.86066 303.8183 17.895126
633.78998 303.84708 19.235682
633.71936 303.87579 20.574562
633.64886 303.90451 21.911781
633.57843 303.9332 23.247335
633.50854 303.96164 24.581188
633.67511 303.89383 25.893997
633.89905 303.80267 27.20669
634.10718 303.71796 28.525557
634.26575 303.65341 29.851616
634.38409 303.60522 31.182808
634.42657 303.58792 32.518559
634.55139 303.53714 33.85434
634.76239 303.45123 35.193043
633.63507 303.91013 39.176933
634.0965 303.72232 40.526539
634.56964 303.52969 41.887634
634.97693 303.36389 43.255203
644.97034 299.29599 48.340523
645.28766 299.16681 49.838562
633.30585 304.04416 49.758213
632.07056 304.54697 50.908566
631.47809 304.78815 52.127911
631.82391 304.64737 53.487335
631.58411 303.3316 -0.16077805
631.80524 303.23877 1.0809441
648.7981 296.10574 0.41650391
648.88318 296.07001 1.906498
647.10272 296.81738 3.8596306
647.07379 296.82956 5.3585167
647.04431 296.84192 6.8568268
647.01538 296.85406 8.3543358
634.07654 302.28537 12.434484
633.93268 302.34573 13.800316
633.74847 302.4231 15.169891
633.83423 302.38708 16.490639
633.79529 302.40344 17.832479
633.87463 302.37012 19.1567
634.04205 302.29984 20.471384
634.20996 302.22937 21.789951
634.44025 302.13269 23.105865
634.67572 302.03384 24.42672
634.9126 301.93442 25.752979
635.15002 301.83475 27.084797
645.13202 297.64462 42.537392
644.8075 297.78088 48.378494
644.60468 297.866 49.819679
633.17865 302.66226 49.802914
632.43091 302.97617 51.025467
632.30341 303.02966 52.325325
631.61682 301.89215 -0.32033157
631.84216 301.79468 0.92572403
649.32349 294.23257 0.12699127
649.54596 294.13635 1.5937462
647.95148 294.82608 3.5167809
647.92206 294.83881 5.0321388
648.08423 294.76868 6.5037651
648.60468 294.54355 7.9029922
634.65033 300.5799 16.276699
634.77246 300.52707 17.609102
634.98364 300.4357 18.931753
644.71918 296.2243 44.01416
645.60754 295.84003 48.519222
637.22089 299.46793 49.008572
634.52429 300.63443 50.039505
633.8728 300.91623 51.296768
634.80042 300.51498 52.781281
650.10559 292.21756 -0.23506546
650.19006 292.1799 1.2832298
644.38495 294.76611 45.50016
644.47559 294.72574 46.981216
644.47278 294.72699 48.454437
637.88202 297.66318 49.145573
635.43481 298.75342 50.221275
635.47424 298.73581 51.593102
650.96875 290.1308 -0.62242508
650.88477 290.16931 0.95679855
643.83002 293.40411 46.969795
644.35864 293.16174 48.498604
638.69318 295.75952 49.301613
637.06366 296.50674 50.498791
642.94019 292.2009 46.934875
639.83008 293.66785 49.49799
639.35638 293.89127 50.866116
646.54193 290.50204 53.323231
642.99365 292.17569 54.281837
642.82196 290.63315 46.973888
642.48615 290.79599 48.410145
641.42267 291.31171 49.750847
646.17505 289.00714 53.348076
645.81769 289.18042 54.805145
645.22894 289.46594 56.214661
645.97089 287.42654 54.913692
645.30188 287.75989 56.317577
642.69531 287.40878 51.514992
642.31989 285.94171 53.021324
642.04596 284.41568 54.54776
640.58069 278.45975 59.145653
640.15247 276.9967 60.665211
639.82605 275.46701 62.210651
638.00275 267.85934 68.456177
637.6272 266.32993 70.0168
637.41077 264.67941 71.631683
635.45898 256.97586 77.986191
633.22668 247.46487 86.09668
632.86963 245.84485 87.729507
632.53705 310.1001 0.63362503
632.15912 309.71213 2.15662
632.45447 310.01535 3.4278145
632.75183 310.32062 4.7074909
633.91028 311.50995 47.826065
633.64618 311.2388 49.188782
633.40363 310.98975 50.546978
632.81439 310.38489 51.833176
631.89136 309.43726 53.033806
631.63892 309.17804 54.351368
632.63684 308.24637 -0.42816925
632.43591 308.04449 1.0189705
632.07257 307.67947 2.5197639
632.26892 307.87674 3.8118496
632.5202 308.12918 5.0913944
632.79956 308.40988 6.3696022
633.09619 308.70792 7.6510849
633.39441 309.00754 8.9412193
634.15875 309.77554 33.799637
634.51324 310.13168 42.187286
634.4649 310.0831 43.581676
634.32904 309.94662 44.965199
634.15607 309.7728 46.339973
633.97174 309.58765 47.707874
633.56372 309.17767 49.035786
633.28259 308.89523 50.372604
632.27484 307.88269 51.566936
631.55524 307.1597 52.787842
631.60022 307.20486 54.150948
632.57996 308.18924 55.730656
632.55396 306.24759 -0.041801453
632.67023 306.36194 1.2692032
632.98547 306.67188 2.5111809
632.60315 306.29596 4.0065594
632.74152 306.43201 5.3162384
632.91272 306.60031 6.6196404
633.1651 306.84851 7.9035645
633.41895 307.09808 9.1947479
633.67383 307.34869 10.493355
633.91907 307.58984 11.802198
634.42755 308.08978 29.658407
634.31158 307.9758 31.047352
634.18408 307.85043 32.433125
634.17682 307.84326 33.813194
634.29083 307.95538 35.193047
634.40515 308.06781 36.576363
634.37744 308.04053 37.958836
633.97711 307.64688 39.323483
634.19794 307.86401 40.713722
634.50122 308.16226 42.116947
634.45996 308.12164 43.497952
634.34973 308.01328 44.870384
634.18988 307.85608 46.233425
634.01489 307.68405 47.589535
633.86957 307.54114 48.944839
633.75659 307.43005 50.301132
632.4007 306.09689 51.427334
631.9704 305.6738 52.695187
632.09106 305.79242 54.067169
633.06396 306.74905 55.6371
637.94879 311.55212 58.187786
637.95172 311.55499 59.625713
637.86902 311.47366 61.040306
636.82214 310.44431 62.173988
636.19482 309.82748 63.40337
636.54071 310.1676 64.924271
636.85382 310.47546 66.444725
632.4776 304.29626 0.33442307
632.9115 304.71375 1.5119095
633.57617 305.3533 2.6191139
633.15771 304.95065 4.1211891
633.19409 304.98566 5.4600906
633.29346 305.08121 6.7802086
633.4071 305.19061 8.0989838
633.55298 305.33093 9.4119949
633.80121 305.56979 10.701653
634.04248 305.80194 12.000572
634.28503 306.03534 13.306438
634.88269 306.61041 24.17779
634.80255 306.53329 25.563139
634.66724 306.40308 26.951059
634.45551 306.19934 28.340652
634.3551 306.10275 29.717176
634.24316 305.99506 31.091194
634.1972 305.95081 32.459862
634.19489 305.94861 33.826496
634.24695 305.99872 35.193043
634.1535 305.90881 36.558983
634.06061 305.81943 37.922119
633.76465 305.53464 39.273296
634.07959 305.83765 40.652328
634.39709 306.14313 42.041039
634.4425 306.18683 43.414745
634.34937 306.09726 44.775215
634.41461 306.16003 46.151955
634.53961 306.28027 47.538738
634.57251 306.31198 48.915443
634.18732 305.94131 50.223907
632.81451 304.62042 51.342476
632.47107 304.28992 52.621067
632.8363 304.64136 54.038631
633.84827 305.61511 55.613167
638.03986 309.64825 57.983673
638.15436 309.75839 59.437363
637.76337 309.38217 60.757599
636.85236 308.50562 61.917397
636.64917 308.31012 63.262787
636.75348 308.41046 64.699234
636.86523 308.51801 66.141296
632.69519 302.66138 0.58945084
633.90997 303.80515 1.4678154
635.24518 305.06229 2.3393288
634.68054 304.53067 3.9017487
634.34302 304.21289 5.3728828
634.00806 303.89746 6.8331738
634.07928 303.96454 8.162426
634.1792 304.05859 9.4856606
634.15363 304.03452 10.845537
634.11194 303.99527 12.208738
634.37701 304.24487 13.497555
634.64404 304.49631 14.793835
634.99109 304.82303 18.811626
634.91113 304.74777 20.189848
634.83136 304.67264 21.565662
634.75208 304.59802 22.939037
634.67255 304.52316 24.310064
634.5932 304.44843 25.67872
634.48328 304.34491 27.047737
634.42615 304.29114 28.409542
634.49237 304.35349 29.762299
634.53705 304.39557 31.117981
634.53064 304.3895 32.476528
634.55792 304.41519 33.834385
634.6452 304.49738 35.193047
634.74292 304.58942 36.554466
634.84052 304.68127 37.918789
634.32794 304.19867 39.258755
634.56512 304.42197 40.628136
634.80426 304.64716 42.004715
634.97388 304.80682 43.38221
635.052 304.8804 44.755219
635.17365 304.99493 46.135746
635.16595 304.9877 47.50256
635.24939 305.06628 48.882721
633.83527 303.7348 50.019894
633.22406 303.1593 51.258503
633.20123 303.13782 52.592865
633.93988 303.83331 54.085403
637.59033 307.27036 56.250782
638.45312 308.0827 57.860336
638.70026 308.31546 59.339653
637.7655 307.43533 60.509335
637.52478 307.20865 61.847626
637.35571 307.04947 63.200115
637.3678 307.06085 64.604248
637.36011 307.05362 66.002274
638.25769 307.89871 67.710312
632.88428 301.02689 -0.47036743
632.92737 301.06656 0.83397675
635.06116 303.03244 1.368248
636.29749 304.17148 5.0258255
635.60272 303.53137 6.6123829
635.22888 303.18698 8.0836926
634.85358 302.84119 9.5444031
634.78522 302.7782 10.912491
634.71655 302.71497 12.278629
634.62622 302.63174 13.647861
634.6424 302.64664 14.990856
634.90424 302.88788 16.283573
634.93188 302.91333 17.628952
634.85468 302.84222 18.993698
634.77802 302.77161 20.356092
634.73468 302.73166 21.711309
634.81958 302.80988 23.048203
634.90686 302.89032 24.38732
635.01715 302.99188 25.726643
635.12537 303.09158 27.069408
635.22394 303.18243 28.416073
635.29828 303.25092 29.767075
635.35101 303.29947 31.121237
635.36096 303.30862 32.478218
635.40912 303.35303 33.834911
635.49182 303.42923 35.193043
635.57471 303.50555 36.553612
635.66309 303.58698 37.916794
635.00195 302.97791 39.249401
635.24109 303.19821 40.615635
635.48456 303.42252 41.989243
635.67346 303.59656 43.365211
635.76746 303.68314 44.736946
635.89679 303.80231 46.115635
635.97729 303.87646 47.491646
635.94086 303.84293 48.852783
634.17755 302.21835 49.93251
633.68091 301.7608 51.184521
634.02734 302.07999 52.583603
634.97961 302.95731 54.118088
639.95526 307.54138 56.571278
640.57043 308.10815 58.14175
639.02356 306.68301 59.187981
638.9212 306.58871 60.572262
638.76929 306.44876 61.939621
638.46246 306.16608 63.256763
638.30145 306.0177 64.610062
638.19897 305.92331 65.9776
638.66669 306.35419 67.535645
634.43707 300.64871 -0.74262619
634.00177 300.25635 0.7537384
637.38385 303.30508 7.7125854
636.51782 302.52438 9.3271351
635.89404 301.96213 10.852596
635.34479 301.46701 12.341318
635.276 301.40497 13.701639
635.18463 301.32263 15.064877
635.10327 301.24927 16.423405
635.16241 301.30258 17.752853
635.24731 301.37909 19.079517
635.33234 301.45575 20.408642
635.42548 301.5397 21.739059
635.53589 301.63925 23.069939
635.64661 301.73904 24.403996
635.75757 301.83908 25.741272
635.86804 301.93866 27.081842
635.96729 302.02811 28.426458
636.06671 302.11774 29.773962
636.27472 302.30524 31.119614
636.4104 302.42758 32.473454
636.53369 302.53873 33.831451
636.71497 302.70212 35.193043
636.89655 302.86581 36.559948
637.05414 303.00784 37.931446
635.67328 301.76309 39.240101
635.91705 301.98285 40.603382
636.27319 302.30386 41.981983
636.57489 302.57584 43.366238
636.81683 302.79391 44.753185
637.04236 302.99722 46.145294
637.34515 303.27017 47.55415
637.70001 303.59006 48.979481
635.20428 301.3403 49.95686
634.61548 300.80954 51.195744
635.09314 301.24011 52.620071
641.4024 306.92755 55.251678
640.48096 306.09689 59.320988
640.42615 306.04749 60.725857
640.36127 305.98901 62.126335
640.21423 305.85648 63.500893
640.18024 305.82584 64.905861
639.94647 305.61511 66.24559
635.35938 299.68762 0.56843567
638.3194 302.29822 10.450747
636.98627 301.12247 12.153437
636.32275 300.53729 13.662422
635.83154 300.10403 15.114765
635.77136 300.05096 16.465511
635.841 300.1124 17.790081
635.94 300.19971 19.11158
636.0506 300.29727 20.434078
636.1615 300.39505 21.759754
636.27264 300.49307 23.088596
636.42047 300.62347 24.416418
636.64001 300.81711 25.74124
636.85718 301.00861 27.072632
637.26514 301.36841 28.396511
637.63293 301.69281 29.734512
637.94183 301.96524 31.085726
638.07556 302.08316 32.450962
638.15631 302.15439 33.820839
638.33417 302.31125 35.193047
638.49268 302.45105 36.570122
638.65167 302.59128 37.951809
637.44476 301.52682 39.278767
637.80212 301.84204 40.661381
638.05408 302.06424 42.0467
638.31183 302.2915 43.439819
638.45221 302.41534 44.828506
638.6557 302.59482 46.228569
638.87543 302.78864 47.636642
639.73584 303.54745 49.143841
635.73999 300.02328 49.902534
635.28552 299.62253 51.16082
635.64215 299.93701 52.558582
646.8819 309.84991 56.172626
638.75073 300.85486 13.306988
637.47388 299.75317 14.949556
636.97131 299.31955 16.400032
637.12653 299.45349 17.713446
637.34698 299.64368 19.0201
637.56842 299.83475 20.332901
637.78821 300.02438 21.652302
638.00824 300.21423 22.977978
638.22931 300.40497 24.309845
638.45178 300.59692 25.647903
638.67487 300.78943 26.992298
639.00775 301.07663 28.335217
639.38416 301.40143 29.685188
639.76361 301.72879 31.045824
639.95239 301.89169 32.422813
640.03186 301.96027 33.806786
640.40277 302.2803 35.193043
640.7478 302.57803 36.589565
641.05219 302.84064 37.994823
639.50128 301.50244 39.328979
639.82928 301.78549 40.72644
640.26868 302.16458 42.141296
640.61194 302.46075 43.560482
640.737 302.5687 44.967613
641.2326 302.99631 46.420849
641.85614 303.5343 47.904816
642.81952 304.36554 49.455406
636.53534 298.94339 49.890198
636.13025 298.59387 51.156586
636.5224 298.93222 52.559994
639.45764 299.66165 16.079872
639.59436 299.77704 17.419846
639.94104 300.06967 18.727896
640.09332 300.19821 20.076195
640.24615 300.32718 21.428734
640.39899 300.45621 22.785625
640.5528 300.586 24.146736
640.70703 300.71619 25.512194
640.86176 300.8468 26.881969
641.12573 301.06964 28.248402
641.47565 301.36496 29.617439
641.82806 301.66238 30.996319
642.14691 301.93155 32.386173
642.27948 302.04343 33.78772
642.58069 302.2977 35.193043
644.58313 303.98788 36.631107
643.17963 302.80325 39.447388
644.19708 303.66202 40.923325
643.76001 303.29309 42.324852
643.70087 303.24319 43.746166
648.08484 306.94351 45.607742
647.43848 306.39795 47.022072
647.03033 306.05347 48.448513
648.02625 306.89404 50.062862
637.30255 297.84265 49.873692
637.00427 297.59085 51.157425
637.63562 298.12375 52.60442
645.65271 303.0065 20.794163
644.76129 302.27054 22.346992
644.33215 301.91623 23.822668
644.3291 301.9137 25.244259
644.23346 301.83472 26.673601
644.13757 301.75555 28.100258
644.04095 301.67581 29.524258
643.94501 301.59656 30.945503
644.57648 302.11795 32.343571
645.73254 303.07242 33.752033
647.96283 304.91382 45.499931
647.25684 304.33096 46.89283
646.91992 304.05276 48.312603
638.07385 296.74915 49.858116
637.86371 296.57565 51.155804
638.76434 297.31924 52.650871
646.37317 301.73856 19.388054
645.58569 301.1026 20.934723
645.21368 300.80222 22.407265
645.25049 300.83191 23.823809
645.17035 300.76718 25.252785
645.07355 300.689 26.680927
644.97693 300.61099 28.106346
645.06824 300.68472 29.518595
646.38452 301.74768 30.882116
647.07959 302.30902 46.766426
646.58057 301.90604 48.150444
638.83997 295.65512 49.842037
638.72455 295.56192 51.154438
647.49176 300.79282 15.042774
647.46606 300.77252 16.486696
647.19403 300.55765 17.970779
646.40875 299.93747 19.525373
646.09485 299.68958 20.993101
646.13196 299.71884 22.40848
646.10736 299.69943 23.831705
646.00964 299.62228 25.26133
645.91217 299.54526 26.688238
646.69702 300.16516 28.051453
646.94513 300.36111 46.647034
646.30017 299.85172 47.998531
645.99316 299.60925 49.378922
639.6076 294.56598 49.826462
639.58136 294.54526 51.152424
648.44818 299.71558 4.9629784
648.03088 299.39328 6.5168457
647.6944 299.13339 8.0382538
647.54132 299.01517 9.5052109
647.43585 298.93372 10.956867
647.41681 298.91898 12.386703
647.3678 298.88113 13.822172
647.31342 298.83914 15.257328
647.25909 298.79718 16.690983
647.18085 298.73676 18.127085
646.97522 298.57794 19.580235
647.01215 298.60645 20.994526
647.04456 298.6315 22.410378
646.94598 298.55536 23.84148
646.84802 298.47968 25.269821
648.39038 299.6709 26.560638
646.39966 298.13342 42.250351
646.19 297.9715 47.870338
645.78778 297.66083 49.223824
640.38147 293.48526 49.812119
640.41064 293.50781 51.145927
648.62714 298.05063 2.3217316
648.2121 297.73718 3.8749104
647.91559 297.51324 5.3830185
647.76324 297.39816 6.8439236
647.68762 297.34109 8.2808781
647.6709 297.32846 9.7013931
647.84119 297.45703 11.0783
647.84479 297.45978 12.496033
647.85388 297.46664 13.912741
647.86383 297.47418 15.329529
647.87341 297.48138 16.74667
647.88293 297.48856 18.164074
647.89197 297.49542 19.581795
647.92969 297.5239 20.995876
647.88245 297.48822 22.421373
648.97729 298.31506 23.721512
645.94238 296.02304 43.549431
645.5105 295.6969 49.061699
641.17566 292.42316 49.801071
641.49353 292.66318 51.180862
649.53156 296.94696 -0.52679062
649.51855 296.93735 0.90619659
649.72223 297.08774 2.2717667
648.30365 296.04028 4.1231899
648.28687 296.02789 5.5402012
648.27008 296.0155 6.9567528
648.2832 296.02521 8.3652077
648.49811 296.1839 9.725132
648.71436 296.34354 11.090546
648.79028 296.3996 12.491983
648.79395 296.40231 13.910063
648.79712 296.40466 15.328327
648.8031 296.40906 16.746193
648.81268 296.41617 18.163622
648.81775 296.41989 19.581993
648.81909 296.4209 21.001001
645.85968 294.23572 44.848648
644.35394 293.1239 46.06588
642.87592 292.03253 47.245945
645.29089 293.8157 48.910194
642.06165 291.4313 49.803802
649.95642 295.49811 -0.35717773
649.94666 295.49109 1.0679512
650.07532 295.58392 2.4503593
648.86554 294.71066 4.229063
648.84827 294.69821 5.6413555
648.92603 294.7543 7.0278301
649.14209 294.91031 8.3813076
649.35864 295.06659 9.7404594
649.57599 295.22351 11.105173
649.73608 295.33905 12.487946
649.73975 295.34171 13.906269
649.74298 295.34406 15.324783
649.7467 295.34671 16.743305
650.85693 296.14813 17.984756
645.30963 292.14386 46.073128
644.05493 291.23813 47.282459
644.29309 291.41003 48.657509
642.87152 290.38391 49.795311
643.81952 291.06821 53.954834
650.39075 294.07245 -0.19361115
650.3717 294.05905 1.22789
650.5249 294.16711 2.596508
649.42316 293.38974 4.3343468
649.56543 293.49011 5.697506
649.78223 293.6431 7.044693
649.99951 293.79639 8.3975143
650.72369 294.3074 9.6353741
644.05493 289.60193 47.177994
643.93359 289.51633 48.493607
643.83301 289.44537 49.80904
650.82153 292.66019 -0.031692505
650.89246 292.70911 1.3549728
651.888 293.39563 2.4646187
644.77484 288.49023 47.160294
644.78558 288.49765 48.491394
644.02521 287.9733 51.03141
647.7395 290.53473 52.984486
647.28247 290.21957 54.269154
646.20355 289.47552 55.419495
651.2702 291.27542 0.1216774
651.4256 291.38019 1.4760323
643.66357 286.1492 52.144394
646.9549 288.36728 54.047485
646.42395 288.00946 55.29068
651.7149 289.90271 0.27370834
652.56873 290.4649 1.406292
647.34442 287.02481 53.958988
646.96619 286.77573 55.226265
647.41357 287.07034 56.654106
652.22675 288.58743 0.40177536
654.16766 289.83603 1.1978493
647.71198 285.68307 55.201977
642.69171 282.45355 55.508942
642.57825 280.89963 56.575417
641.82739 278.9823 58.715286
641.59631 277.42184 59.693901
640.71863 274.15161 62.669491
640.68109 272.79129 63.625111
639.96722 271.08539 65.527206
639.81305 269.71597 66.397392
639.30438 268.18729 68.273056
639.00751 266.79807 69.044876
638.27924 264.03409 71.585419
638.19922 262.8255 72.374336
637.63184 261.41479 74.033264
637.45001 260.20551 74.739456
636.8692 257.75812 77.06044
636.29645 255.40393 79.2799
636.15771 254.3161 79.915436
635.51813 252.06171 81.965897
634.3053 311.95084 2.725708
632.6969 310.05374 0.33146667
632.95312 310.21628 1.5213013
632.56311 310.21027 2.6907997
632.82812 310.37665 3.9005814
633.65344 310.69214 5.1646519
632.68988 308.79968 0.38933563
632.80402 308.91953 1.5713463
632.37939 308.90479 2.7352905
632.64246 309.06329 3.9411221
632.90894 309.22369 5.1605663
633.17792 309.3858 6.3937874
633.45007 309.54977 7.6410561
632.68921 307.55182 0.44718552
632.86871 307.68185 1.6300468
632.35114 307.64532 2.78759
632.5368 307.77798 3.9863548
632.78186 307.92587 5.2011833
633.02954 308.07538 6.4292946
633.28003 308.22653 7.6709156
633.53326 308.37936 8.9262714
633.80914 308.53873 10.197903
636.36725 310.65527 30.610411
636.25281 310.73056 31.991644
635.80743 310.72052 33.276253
639.48071 312.34048 43.430328
637.61475 311.95813 44.218975
635.76538 311.57745 44.977345
634.47302 311.34323 45.936707
634.29108 311.40588 47.362465
634.01874 311.44458 48.753338
634.32733 311.64093 50.419476
633.81299 311.61499 51.709526
633.24316 311.57373 52.969582
635.76831 306.92474 -0.59337997
632.68896 306.30859 0.50484848
632.95184 306.45151 1.6893959
633.33673 306.62329 2.8935165
632.77826 306.57941 4.0533829
632.90887 306.69412 5.2603569
633.10345 306.82437 6.4833488
633.354 306.96848 7.723793
633.60736 307.11417 8.9779243
633.86353 307.26147 10.245998
634.11322 307.40823 11.527033
636.84857 309.18469 27.946901
635.75134 309.01483 29.041943
634.69702 308.8544 30.13274
634.57373 308.92239 31.488323
634.45215 308.9913 32.851189
634.46729 309.09464 34.265465
634.58893 309.22525 35.726032
639.88696 310.65125 39.015148
634.37311 309.37402 38.519726
634.54492 309.51962 40.032936
634.74115 309.67249 41.570354
634.78638 309.78812 43.062656
634.66064 309.86105 44.49588
634.48901 309.92279 45.916954
634.30646 309.98218 47.339539
633.94818 309.99677 48.688522
633.66516 310.03091 50.074135
633.50159 310.09625 51.52066
632.49036 309.94156 52.55547
632.18372 309.9697 53.931561
633.54523 310.43527 56.179718
638.23761 311.78061 60.258171
638.40576 311.94131 61.996292
637.07971 311.70718 62.910709
636.6535 311.71066 64.319206
636.82477 311.87375 66.081169
633.06763 305.07339 -0.5931015
632.70386 305.07312 0.5627861
633.11353 305.24094 1.7520103
635.63531 305.87027 3.070509
633.07733 305.39267 4.1241398
633.20984 305.50235 5.332449
633.34314 305.61288 6.5514412
633.4776 305.7244 7.7813129
633.6817 305.85211 9.0295048
633.93793 305.99222 10.296337
634.18286 306.13077 11.57548
634.42914 306.27051 12.86846
636.38812 307.51178 25.081905
635.11603 307.3096 26.131435
634.95172 307.36334 27.454365
634.76575 307.41238 28.776785
634.6427 307.4765 30.122461
634.52893 307.54321 31.47756
634.44507 307.61746 32.848976
634.47906 307.72006 34.26651
634.60046 307.84415 35.724335
634.67395 307.95764 37.178341
634.18658 307.93805 38.440636
634.3573 308.07602 39.94812
634.65619 308.24579 41.520042
634.76971 308.37204 43.035614
634.66357 308.44598 44.473701
634.50446 308.5076 45.897064
634.32129 308.56375 47.316483
633.97101 308.57941 48.666187
633.55896 308.58002 49.988777
633.276 308.61243 51.37336
632.22394 308.45468 52.38205
631.80518 308.45316 53.694511
632.81378 308.80762 55.749832
638.56494 310.35196 60.378319
637.60602 310.22174 61.499416
636.68842 310.10095 62.629234
636.65503 310.20312 64.255081
636.94916 310.38928 66.085709
633.04156 303.8338 -0.5343399
632.81873 303.86237 0.62386322
634.78223 304.34229 1.8803444
634.80157 304.49988 4.2869453
634.01508 304.41354 5.4424782
633.87292 304.46133 6.644434
633.96216 304.55798 7.873579
634.0517 304.6553 9.1126633
634.0957 304.74368 10.356405
634.25012 304.85599 11.623507
634.49872 304.98907 12.915413
634.74731 305.12305 14.221161
636.45978 305.57104 15.778049
636.66571 305.86758 19.766239
635.63025 305.72839 20.887707
635.16827 305.71301 22.119852
635.10638 305.78485 23.442513
635.04413 305.85712 24.772764
634.98151 305.92978 26.110668
634.8338 305.98416 27.433781
634.68866 306.03952 28.763493
634.59515 306.10672 30.114128
634.48431 306.1705 31.466846
634.45398 306.25275 32.851768
634.49072 306.35062 34.267548
634.5481 306.45383 35.70105
634.47595 306.52847 37.100494
634.01978 306.5166 38.368805
634.21375 306.65256 39.87999
634.57172 306.82693 41.470009
634.75311 306.9621 43.008686
634.65735 307.03445 44.4478
634.52032 307.09784 45.877464
634.39917 307.16534 47.321259
634.34058 307.24792 48.801056
634.14038 307.298 50.224205
632.91058 307.10736 51.159298
632.09491 307.01266 52.276737
631.61115 306.99557 53.551376
633.62469 307.56964 56.123024
638.4151 308.80786 60.243633
637.51746 308.69852 61.393028
636.89478 308.65417 62.684082
636.80597 308.73779 64.277237
637.07269 308.90784 66.089935
633.01263 302.59863 -0.47589493
632.94141 302.65509 0.68511963
635.64093 303.54782 6.8443108
634.74133 303.44394 7.9945602
634.70734 303.51187 9.2266598
634.67719 303.58102 10.466581
634.55927 303.63303 11.702682
634.49506 303.69617 12.952009
634.76245 303.82669 14.258385
635.03247 303.95862 15.579535
635.2691 304.08463 16.909447
635.22394 304.15402 18.201252
635.15833 304.2197 19.496763
635.09692 304.28668 20.800465
635.03522 304.35403 22.11158
634.97308 304.42178 23.430168
634.91064 304.48993 24.756302
634.8479 304.55844 26.090036
634.7337 304.6167 27.417883
634.64124 304.67993 28.758389
634.54828 304.74347 30.105968
634.50012 304.81693 31.474321
634.46283 304.89319 32.854546
634.44647 304.9744 34.250374
634.54462 305.08063 35.694309
634.64404 305.18784 37.151031
634.44751 305.2323 38.512825
634.1673 305.259 39.848389
634.49731 305.41788 41.423965
634.7655 305.56445 42.993462
634.83154 305.66806 44.496674
634.94098 305.78192 46.030674
634.99713 305.88486 47.554779
635.03156 305.9838 49.081387
634.35406 305.92615 50.288113
632.92126 305.70062 51.125931
632.38782 305.67355 52.379532
632.36328 305.76001 53.887459
639.36139 307.42145 59.055725
638.26727 307.27429 60.110394
637.87128 307.28372 61.529076
637.54956 307.31006 62.990547
637.54822 307.40948 64.639557
637.60223 307.52231 66.333511
632.98804 301.36929 -0.41757202
633.06726 301.45016 0.74639511
636.5061 302.57367 9.464344
635.26282 302.41095 10.577518
635.14673 302.46063 11.818008
635.02386 302.50934 13.06328
634.87079 302.55261 14.309614
635.01154 302.65237 15.608749
635.21393 302.76465 16.930241
635.1582 302.82797 18.217119
635.0921 302.88971 19.509394
635.02563 302.95178 20.808872
634.9588 303.01422 22.11561
634.96338 303.091 23.446192
635.04364 303.18314 24.804281
635.15668 303.28232 26.181675
635.26605 303.38147 27.569988
635.34161 303.47461 28.960831
635.39331 303.56366 30.355997
635.3739 303.63916 31.740517
635.34827 303.71393 33.132233
635.40289 303.80533 34.559223
635.47949 303.90179 36.004826
635.57642 304.00302 37.469402
635.021 303.97275 38.709717
634.91901 304.03448 40.116505
635.25732 304.18655 41.701805
635.52594 304.32541 43.278084
635.61163 304.42764 44.796082
635.77002 304.54562 46.357918
635.71106 304.61945 47.839073
635.72809 304.70959 49.363941
634.12848 304.46317 50.147476
633.21558 304.35873 51.2285
632.68146 304.3331 52.482674
633.96124 304.68979 54.650925
640.39191 306.13928 59.539867
639.89771 306.12842 60.925255
639.80084 306.20218 62.526489
638.78003 306.07877 63.619339
638.40833 306.09387 65.069061
638.33698 306.17383 66.697517
634.98328 300.49353 -0.30989075
633.64417 300.32501 0.82329559
636.39667 301.39798 12.01963
635.62109 301.3277 13.18438
635.49408 301.37332 14.43895
635.34113 301.41458 15.69492
635.25555 301.46832 16.967731
635.33258 301.55185 18.277317
635.41388 301.63675 19.598135
635.49536 301.72223 20.929605
635.5863 301.81003 22.273869
635.70593 301.90366 23.635784
635.8266 301.99814 25.009777
635.9483 302.09348 26.396011
636.06122 302.18781 27.791994
636.16656 302.28137 29.197918
636.27234 302.37567 30.615925
636.33105 302.46179 32.031857
636.53113 302.5751 33.503216
636.88336 302.71793 35.038776
637.25543 302.86551 36.599586
637.76501 303.04025 38.227779
635.57965 302.70209 38.901146
635.67908 302.79898 40.387615
636.0293 302.94473 41.984108
636.28198 303.07272 43.56078
636.40259 303.17606 45.099796
636.8443 303.34247 46.789421
637.76654 303.60376 48.712254
635.64819 303.27222 49.295174
634.06097 303.04254 50.080673
633.50964 303.01526 51.330948
633.70325 303.13507 52.943939
637.89227 300.41827 13.541998
636.28687 300.21344 14.59432
635.96948 300.2247 15.829908
635.93933 300.2847 17.117039
636.02264 300.36435 18.433125
636.12927 300.44855 19.764357
636.25079 300.53586 21.109898
636.37341 300.6239 22.46731
636.49707 300.71277 23.836771
636.62189 300.8024 25.218422
637.14215 300.96124 26.712683
638.47089 301.26184 28.443409
639.62836 301.53458 30.167353
641.41058 301.91867 32.109364
641.47882 302.00406 33.586983
640.08148 302.05383 39.03067
637.32794 301.63641 39.523972
638.55072 301.92987 41.450756
647.66449 303.64691 46.478153
647.20551 303.64554 47.914104
636.28961 301.97479 49.552551
634.97522 301.80994 50.4706
633.9082 301.68958 51.483299
636.19208 302.18951 54.125771
649.32367 300.5065 6.8718662
648.60486 300.45993 8.1738777
647.91492 300.41754 9.472332
647.80347 300.4646 10.828001
647.79028 300.52722 12.201958
647.77753 300.59036 13.584681
647.76416 300.65381 14.976114
647.74524 300.7168 16.375559
638.06024 299.25616 16.204123
638.23322 299.34528 17.547579
646.22485 300.67596 20.355484
645.6087 300.64478 21.656742
645.61395 300.71265 23.082954
645.54791 300.76953 24.503208
645.3689 300.80865 25.905483
645.1886 300.84784 27.313068
645.00763 300.88715 28.726116
644.82428 300.92636 30.144236
647.51044 302.09384 46.399651
646.95691 302.07635 47.792599
636.45197 300.58548 49.593323
635.33105 300.46475 50.600613
635.52716 300.57028 52.218758
650.53357 299.0386 1.6062622
648.98779 298.8786 2.8751678
648.70374 298.89661 4.1924648
648.41919 298.91464 5.5123577
648.13464 298.93277 6.8348999
647.95667 298.96631 8.1695137
647.82135 299.0062 9.5133038
647.72028 299.05127 10.866732
647.7074 299.10941 12.237465
647.68243 299.16617 13.615292
647.64032 299.22079 14.999186
647.59796 299.27573 16.391241
647.53937 299.32867 17.788914
646.97314 299.30731 19.105862
646.67554 299.32544 20.469513
646.68439 299.38904 21.89633
646.64703 299.44623 23.323248
646.46893 299.48282 24.727982
646.29071 299.51962 26.138309
647.22424 300.25357 39.951054
646.78363 300.53098 47.701378
646.4483 300.54871 49.176361
636.83252 299.23267 49.732605
635.83203 299.1398 50.797951
636.74603 299.35306 52.76226
649.99829 297.52164 0.32644653
650.31189 297.61606 1.6627426
648.63403 297.45068 2.9202461
648.35095 297.46719 4.231638
648.17664 297.49814 5.55299
648.04272 297.53461 6.8824043
647.90875 297.57129 8.2176151
647.83539 297.61627 9.5646839
647.9267 297.68347 10.937025
647.89594 297.7348 12.305471
647.86719 297.78674 13.682432
647.83826 297.83899 15.067764
647.80914 297.89157 16.46154
647.77985 297.94446 17.863836
647.74872 297.99744 19.274445
647.76178 298.05679 20.701962
647.75323 298.11362 22.13496
647.57727 298.1478 23.542397
646.82111 298.77051 41.364117
646.67059 299.00446 47.634426
646.24182 299.00708 49.066193
638.91382 298.06415 49.096161
637.42151 297.90701 49.965862
637.0766 297.91812 51.340225
650.0025 296.14355 0.39285278
650.0473 296.19803 1.7171936
648.59052 296.07248 2.9795074
648.55139 296.11694 4.3022308
648.51202 296.16165 5.6325722
648.47198 296.20657 6.9705486
648.43219 296.2518 8.3163242
648.65814 296.32974 9.6963959
648.94153 296.41525 11.096354
649.0177 296.47583 12.486183
648.98273 296.52313 13.872002
648.94696 296.57062 15.266018
648.91718 296.61917 16.669306
648.89105 296.66852 18.081799
648.85754 296.71722 19.501726
648.86212 296.77106 20.937431
646.44727 297.29599 42.782631
646.07654 297.48184 48.973183
639.33838 296.69489 49.252388
638.02069 296.57428 50.20351
638.29095 296.66803 51.867878
650.37488 294.81033 0.46920776
650.46021 294.86444 1.79673
650.6958 294.93536 3.141571
649.10492 294.80609 4.3933487
649.06708 294.84714 5.7272968
649.10663 294.897 7.0750847
649.39105 294.97433 8.4542103
649.67859 295.05252 9.8483295
649.9693 295.13153 11.257685
650.15955 295.19983 12.669968
650.1272 295.24356 14.065979
650.0946 295.28757 15.470366
650.06189 295.33182 16.883223
646.10974 295.82993 44.210327
645.88251 295.96301 48.868515
639.84839 295.3317 49.445927
639.125 295.29501 50.66851
650.74866 293.47427 0.54574966
650.94733 293.53439 1.8792839
651.13507 293.59378 3.2247009
649.6618 293.48874 4.4849682
649.83636 293.54709 5.8370819
650.12494 293.61716 7.2104034
645.87115 294.37796 45.672695
645.92255 294.43182 47.270958
645.67676 294.45334 48.759182
640.46924 293.97433 49.687801
640.32098 294.00531 51.174339
651.16199 292.1387 0.62355042
644.00122 292.76727 46.482716
642.92908 292.70456 47.603363
642.60431 292.71509 49.025082
641.25159 292.62396 50.000122
655.0824 291.03812 -0.55311584
651.68152 290.80756 0.70464706
643.21838 291.32632 49.258625
642.64117 291.31378 50.57745
643.21704 291.44037 54.004417
652.41077 289.45685 -0.53572845
652.20398 289.47064 0.78611374
644.74982 289.9325 46.739635
644.08551 289.91528 48.031532
643.81622 289.92767 49.485168
647.98004 290.27472 52.8787
647.62903 290.28229 54.360634
645.66876 288.54498 47.085163
644.65784 288.50864 48.243015
644.67719 288.53754 49.823029
648.56488 288.81339 53.102764
647.20245 288.7551 54.134598
647.35547 288.79376 55.843204
644.27002 287.08984 51.198265
647.19836 287.26593 54.098564
647.06677 287.28253 55.672287
643.81952 285.64532 52.548645
643.40607 284.20789 53.909622
643.02094 282.77609 55.278381
642.67456 281.34906 56.661072
642.40723 279.92523 58.079247
640.97778 272.86694 63.476959
640.47406 271.47815 64.744568
640.08289 270.08701 66.068817
639.68304 268.70154 67.382706
639.31909 267.31714 68.712631
638.99512 265.93207 70.062515
636.5274 255.03654 79.176559
636.14075 253.69968 80.446655
635.80676 252.35498 81.749847
636.5459 313.75223 53.473408
638.71997 313.37225 64.905136
634.22388 312.18723 48.577499
634.33032 312.10886 49.884865
633.97394 311.90417 51.27578
632.78717 311.47418 52.80175
632.88452 311.39651 54.07119
633.25299 311.39291 55.290642
634.60663 311.65561 56.362663
637.65045 312.37192 57.22271
637.82629 312.31339 58.506294
638.302 312.33548 59.750263
637.83514 312.00217 62.377426
636.09509 311.43796 63.796684
636.28271 311.38654 65.029831
636.43378 311.32584 66.261093
637.1662 311.41806 67.457474
634.02997 310.99731 45.922173
633.85718 310.84744 47.304691
633.50995 310.6525 48.712059
633.26709 310.48636 50.080765
633.02423 310.32132 51.434944
631.87585 309.92072 52.940926
631.65332 309.76401 54.252716
631.98517 309.75232 55.461754
633.15118 309.95654 56.544945
637.62433 311.01248 57.187481
637.8056 310.95804 58.467712
637.85034 310.86899 59.759205
637.64594 310.71686 61.069427
636.49084 310.32379 62.456841
636.03162 310.1098 63.75256
636.34973 310.09381 64.973244
636.51685 310.03986 66.202049
637.25964 310.13089 67.396309
636.09662 311.11615 32.691715
635.52179 310.85834 34.338852
634.8822 310.27264 40.205284
634.33173 310.02847 41.745941
634.3335 309.92728 43.117344
634.20953 309.79474 44.5112
634.04639 309.65314 45.902264
633.87244 309.50977 47.282734
633.52252 309.323 48.688427
633.1405 309.12936 50.083645
633.23218 309.05582 51.368725
631.58923 308.54941 52.965851
631.32983 308.39087 54.278503
632.1095 308.49127 55.409359
633.03723 308.62762 56.527058
637.64185 309.66946 57.146355
637.89709 309.63577 58.41494
638.11859 309.59406 59.684494
637.43018 309.33051 61.046761
636.45819 308.99969 62.412674
636.18011 308.83932 63.690773
636.38434 308.79657 64.919189
636.60242 308.75742 66.14296
637.44666 308.86887 67.330353
632.14783 310.96841 2.2054024
632.53021 310.9559 3.6018963
633.69189 311.15234 4.5253906
635.16974 309.677 30.118315
634.08923 309.30276 31.969517
633.97052 309.17169 33.445995
634.0625 309.09406 34.838154
634.17792 309.02277 36.214958
634.29327 308.95197 37.584747
633.90076 308.75644 39.100628
634.02869 308.69016 40.446739
634.26782 308.65155 41.75552
634.31702 308.56686 43.110947
634.21277 308.44543 44.497028
634.06226 308.31363 45.882542
633.88763 308.17691 47.260868
633.54681 308.0011 48.662323
633.41119 307.8757 50.004486
631.93909 307.43164 51.595783
631.33655 307.19772 52.984798
631.42969 307.13065 54.231476
632.17303 307.2179 55.366825
633.37 307.41156 56.44223
637.70142 308.34097 57.099503
638.1535 308.3551 58.341133
638.53363 308.35233 59.592529
637.31512 307.97736 61.013741
636.96106 307.80548 62.31752
636.8269 307.68558 63.586769
637.00562 307.63858 64.821747
637.02502 307.55527 66.062546
637.7312 307.62982 67.259247
632.26184 309.63535 0.5667038
631.96289 309.448 2.3998489
632.24463 309.41071 3.8524551
632.52509 309.37341 5.30163
632.8053 309.3363 6.7467594
633.08435 309.29919 8.188446
633.99152 309.42078 9.2729034
635.11139 309.59491 10.254219
634.34692 308.17142 28.986212
634.18048 308.03363 30.504433
634.04071 307.9032 31.998449
633.98041 307.7926 33.450951
634.07544 307.71964 34.839355
634.19067 307.65192 36.213589
634.13965 307.54553 37.632927
633.73376 307.35663 39.148243
633.92035 307.30756 40.472675
634.20007 307.28058 41.766224
634.30066 307.21213 43.104576
634.20679 307.09915 44.485249
634.07849 306.97903 45.862778
634.0506 306.88278 47.205036
634.16772 306.82043 48.505886
634.0885 306.71365 49.841122
632.20538 306.19711 51.518501
631.67773 305.99146 52.894558
631.84027 305.94318 54.130772
632.59283 306.02814 55.266758
637.00891 306.93512 55.85944
640.0141 307.52036 56.738392
638.47491 307.00089 59.556145
638.2608 306.86679 60.867699
638.01556 306.72668 62.169186
637.6629 306.56384 63.466255
637.52319 306.44882 64.731689
637.43347 306.34543 65.982841
638.09424 306.40634 67.183853
632.177 308.14069 0.70247269
631.8175 307.94833 2.5687256
632.10767 307.91537 4.0103989
632.40503 307.8844 5.4438648
632.70166 307.85345 6.8740883
632.99817 307.82272 8.3007908
633.29352 307.79196 9.7245617
633.58472 307.76044 11.147001
634.47284 307.871 12.247099
634.64233 307.03101 25.944513
634.44763 306.89209 27.49995
634.24017 306.75122 29.044859
634.13116 306.63376 30.537159
634.01788 306.51617 32.017994
633.99023 306.41873 33.455883
634.08838 306.35031 34.840538
634.03772 306.24899 36.266178
633.93817 306.13742 37.696106
633.57385 305.96765 39.193745
633.85358 305.94205 40.486603
634.13312 305.9166 41.776737
634.2843 305.86301 43.098232
634.3009 305.78021 44.448116
634.48444 305.73453 45.748779
634.56958 305.66769 47.067245
634.755 305.62311 48.356659
634.77173 305.54227 49.676338
632.55469 304.97934 51.424927
632.04956 304.78879 52.798599
632.46661 304.79745 53.99258
633.63208 304.96616 55.066208
640.42908 306.08063 59.282494
640.49194 306.01038 60.583366
640.38885 305.90579 61.893051
640.4447 305.83508 63.178467
640.68542 305.72186 65.719467
639.97491 305.4938 67.026306
632.25275 306.69174 0.73397827
632.64532 306.6835 2.1218262
632.34583 306.51611 3.9361534
632.55267 306.466 5.4241428
632.77875 306.42072 6.894558
633.07477 306.39163 8.3191929
633.36957 306.36252 9.7409058
633.65582 306.33167 11.163731
633.93402 306.29926 12.58709
634.31128 306.28928 13.955019
636.08203 306.59064 14.616465
636.38403 306.28152 20.692387
634.67792 305.81485 22.971664
634.5874 305.70462 24.506287
634.49774 305.59537 26.027561
634.31299 305.46628 27.574047
634.18915 305.35126 29.08176
634.08063 305.24036 30.570263
634.02814 305.14224 32.025494
634.00049 305.05017 33.460644
634.06567 304.97849 34.853748
634.26178 304.93518 36.195915
634.4577 304.89209 37.53318
633.83746 304.67709 39.111572
634.17987 304.66602 40.386791
634.52191 304.65494 41.660828
634.84558 304.64008 42.938507
635.00372 304.59088 44.256523
635.19135 304.54813 45.561852
635.38257 304.50641 46.861576
635.38208 304.42551 48.198582
634.85468 304.23694 49.635895
632.90442 303.75851 51.331223
632.7002 303.63934 52.651054
633.43817 303.71249 53.794281
634.62549 303.87619 54.872623
632.37012 305.25623 0.73833847
632.73401 305.24231 2.1424675
632.72314 305.14709 3.7760506
632.92358 305.0983 5.2697201
633.12274 305.04962 6.7577438
633.32111 305.00113 8.2398796
633.51917 304.95291 9.7158775
633.72528 304.9068 11.181213
634.005 304.87665 12.601398
634.28149 304.84601 14.019354
634.5578 304.81558 15.433491
635.88861 305.00693 16.324648
634.80591 304.69165 18.39599
634.71393 304.5853 19.966034
634.62274 304.47986 21.522293
634.5329 304.37546 23.064713
634.4433 304.27188 24.593924
634.35455 304.16919 26.109858
634.33521 304.08145 27.585171
