# .PCD v0.7 - Point Cloud Data file format
VERSION 0.7
FIELDS x y z
SIZE 4 4 4
TYPE F F F
COUNT 1 1 1
WIDTH 1613
HEIGHT 1
VIEWPOINT 0 0 0 1 0 0 0
POINTS 1613
DATA ascii
5.4641991 27.459183 52.60149
8.0270576 27.844696 50.905323
8.7957115 27.66988 53.34042
9.5163937 27.655628 54.106709
10.509916 27.697575 54.538792
5.7308846 26.487545 52.240318
6.5812607 26.501501 52.819744
7.8589706 26.598467 52.850018
10.671101 26.682831 54.343563
11.354973 26.662575 55.157612
12.331544 26.696348 55.626781
18.823666 26.989956 57.981892
6.9358444 25.534018 52.350231
7.4976635 25.494318 53.317822
8.8045549 25.58609 53.329224
12.577042 25.688202 55.342258
13.209155 25.661091 56.217442
14.136005 25.68243 56.75758
17.706951 25.867033 57.593388
18.430538 25.85355 58.381702
19.553226 25.901348 58.769009
20.772045 25.962574 59.07597
7.1529007 28.284109 1.349144
8.6129179 28.36322 1.5397301
7.6036777 24.477598 53.180557
8.2070198 24.449135 54.085804
9.6704884 24.555143 53.915886
14.128652 24.628901 56.765728
14.972729 24.635723 57.401821
15.871678 24.650196 57.981853
19.546986 25.055096 55.681065
19.322117 24.908001 57.474941
20.229427 24.919971 58.096004
20.777416 24.882832 59.070744
22.044399 24.943153 59.348732
23.508076 25.028261 59.461449
24.777737 25.085991 59.776752
26.063824 25.144596 60.09444
27.461597 25.21629 60.331558
28.94627 25.297504 60.515022
30.468258 25.381695 60.690468
32.016705 25.467415 60.868038
33.588299 25.554211 61.05106
6.8892174 26.772522 1.9291458
8.4148064 26.8568 1.9641533
9.9608316 26.941948 2.0035667
7.9155588 23.486332 52.776752
8.2030029 23.416208 54.090893
9.0504065 23.425304 54.683743
16.022594 23.614601 57.821556
16.854481 23.618546 58.479359
17.790913 23.635324 59.03223
22.456036 23.905067 58.956333
23.790028 23.964851 59.198399
24.752857 23.979959 59.799473
25.803005 24.004826 60.327534
27.20892 24.069809 60.552586
28.629765 24.13509 60.785999
30.099817 24.204498 60.999184
31.587572 24.274406 61.219963
33.135639 24.349476 61.414383
34.445805 24.397209 61.819103
36.912395 24.568079 61.349491
6.8886433 25.320587 1.9304237
8.3298798 25.379744 2.1461067
9.8786278 25.454979 2.1751442
8.3953562 22.407482 53.84734
8.9240227 22.376591 54.840244
9.9042635 22.400398 55.272346
17.979885 22.596085 58.840038
18.871258 22.605373 59.447765
19.887699 22.62767 59.937359
25.661297 22.970047 58.969959
26.859455 23.005751 59.383389
28.068913 23.041813 59.80035
29.425014 23.09161 60.105167
30.886326 23.150652 60.34016
32.968975 23.268635 60.087086
33.537922 23.239082 61.091503
34.473492 23.244915 61.797356
35.33231 23.243423 62.564285
6.9494514 23.877956 1.7966614
8.2180119 23.902889 2.3857613
9.7250586 23.961613 2.4956779
8.7072115 21.404573 53.452488
8.8139305 21.333933 54.976574
9.5508013 21.329586 55.700459
20.334812 21.601068 59.50185
21.517147 21.634151 59.851353
23.079487 21.700157 59.861317
33.669247 22.095409 60.986084
34.373425 22.081484 61.875973
34.925014 22.055561 62.877422
6.9287796 22.422005 1.8421326
7.6535645 22.375652 3.5950127
8.280035 22.319084 5.5116653
8.8385229 22.256456 7.5169716
9.578146 22.217237 9.1091919
10.328708 22.180639 10.647045
11.071522 22.144421 12.169041
11.781051 22.105721 13.72263
12.142842 22.030317 15.869047
12.445223 21.950985 18.059797
12.720272 21.871302 20.235479
13.185825 21.813953 22.032162
14.025692 21.79674 23.175602
15.042523 21.797903 24.024649
16.059391 21.799036 24.874472
17.206745 21.812908 25.526951
19.436787 21.930824 24.582737
8.9197626 20.382057 53.183365
8.704031 20.295094 55.112663
9.4183769 20.289675 55.860851
10.653416 20.328222 55.988781
23.660282 20.652651 59.319447
23.994488 20.616304 60.491947
24.987026 20.62829 61.056774
33.517979 20.928795 61.107502
33.931202 20.897581 62.223362
34.443695 20.873657 63.247471
36.415264 20.947102 63.162052
26.664043 20.149063 74.161331
25.14143 20.003626 76.385468
27.193584 20.086977 76.12854
6.9818001 20.974514 1.7254906
7.0842991 20.875834 4.8145752
7.7806473 20.83839 6.5539665
8.4682302 20.80146 8.2701378
9.1469307 20.765007 9.964138
9.8090076 20.728298 11.651684
10.439539 20.689991 13.360531
10.996052 20.646395 15.166302
11.527664 20.602066 16.972904
12.052529 20.558601 18.747463
12.569377 20.515848 20.493404
13.097844 20.47541 22.178967
13.71945 20.443861 23.674625
14.339359 20.413139 25.143665
14.965229 20.383816 26.575329
16.006809 20.38792 27.349232
17.050037 20.392033 28.124348
18.054844 20.393103 28.958767
19.465519 20.424576 29.218891
21.819447 20.52491 28.199085
8.7116661 19.268173 55.103207
9.3081093 19.255791 55.994404
10.239386 19.26627 56.479305
26.159374 19.55386 61.470623
27.2057 19.565971 62.005146
33.127613 19.753225 61.42083
33.652569 19.734531 62.442242
34.237186 19.719418 63.406239
34.888607 19.708157 64.31073
25.865749 19.148609 73.539841
24.825115 19.056 75.457977
24.653341 19.009548 76.722221
25.956791 19.038599 76.963501
27.928127 19.100559 76.78038
7.0349255 19.524363 1.6086464
7.1038284 19.447786 4.7727318
7.7890205 19.418865 6.5364876
8.4461775 19.388985 8.3149834
9.0941906 19.35952 10.068714
9.7335215 19.330482 11.797615
10.363791 19.301823 13.503334
10.903782 19.268112 15.335995
11.433888 19.234867 17.14119
11.955189 19.202139 18.917912
12.468484 19.169949 20.665854
13.018343 19.141058 22.311642
13.64555 19.117817 23.79504
14.265484 19.094847 25.261227
14.878261 19.072142 26.710514
15.483418 19.049662 28.144077
16.081966 19.027454 29.560825
16.875858 19.017033 30.668377
17.902584 19.02 31.433956
18.931194 19.022989 32.200291
19.966473 19.02626 32.960941
21.761143 19.070404 32.719669
24.083126 19.141424 31.843739
8.8860025 18.24963 54.887333
9.1916437 18.225349 56.135464
9.9149551 18.22278 56.863674
30.929455 18.621822 58.817211
28.396328 18.478888 62.426563
29.456821 18.488117 62.967388
32.899311 18.595005 61.604076
33.491543 18.583817 62.568729
34.062164 18.571983 63.540791
25.704556 18.204687 71.220901
25.07542 18.149542 72.913811
24.505018 18.097778 74.52034
24.336134 18.062551 75.80278
24.191664 18.028942 77.040771
25.131659 18.037113 77.520538
26.813662 18.073009 77.516495
28.68745 18.11537 77.415863
7.2554588 18.079967 1.123558
7.2978745 18.027399 4.3570137
7.9538126 18.006523 6.1925392
8.5999899 17.985935 8.0021515
9.2371864 17.965656 9.7851982
9.8641291 17.945612 11.545132
10.466294 17.925133 13.310081
11.054967 17.904743 15.057957
11.635017 17.884653 16.780262
12.20665 17.864853 18.477568
12.819 17.84741 20.066723
13.336065 17.82655 21.781446
13.670658 17.798859 23.754131
14.15218 17.777945 25.441547
14.769291 17.763048 26.87991
15.379727 17.748333 28.301548
15.983006 17.73377 29.707668
16.57954 17.719372 31.098066
17.169445 17.705132 32.473003
17.79594 17.692644 33.772991
18.841602 17.695782 34.484356
19.913242 17.69977 35.166523
20.996189 17.70405 35.840557
22.658291 17.728493 35.788189
9.0624313 17.225134 54.66885
9.0758419 17.198902 56.275723
9.8004322 17.197283 56.999363
10.977612 17.210752 57.195965
28.726444 17.767971 38.623127
26.005428 17.617493 45.426678
26.515102 17.604153 46.677692
27.665714 17.611176 47.243389
26.302776 17.485853 53.688831
26.627552 17.469233 54.97974
27.152027 17.458883 56.061756
27.672131 17.448633 57.133831
28.186687 17.438448 58.197235
28.673199 17.427681 59.271778
29.341785 17.422291 60.176426
30.968647 17.443815 60.271183
32.714371 17.468176 60.295887
30.666134 17.38813 63.396526
23.647305 17.174999 70.301956
24.105953 17.166819 71.195282
24.162899 17.14813 72.380859
24.182354 17.12883 73.571411
24.189999 17.109602 74.74733
24.095507 17.088118 75.972443
24.003307 17.067104 77.170715
24.959538 17.073009 77.636734
26.074192 17.082769 78.004929
27.673244 17.104366 78.071243
31.237804 17.173878 76.919502
7.5540161 16.626429 0.46683884
7.6740665 16.601923 3.551075
8.3314743 16.591351 5.4043083
8.9734173 16.58079 7.2426033
9.5950165 16.570127 9.0757408
10.207368 16.559624 10.881605
10.810384 16.549269 12.661366
11.400678 16.53898 14.422155
11.989177 16.528992 16.144764
12.614471 16.520119 17.763416
13.231717 16.511362 19.361256
13.794355 16.501743 21.016659
14.163106 16.488449 22.951694
14.508511 16.47509 24.874477
14.702068 16.459116 26.984402
15.244344 16.450443 28.50716
15.847149 16.443192 29.90926
16.443233 16.436022 31.295712
17.033009 16.428936 32.66637
17.58057 16.42127 34.071354
18.179295 16.414747 35.381321
19.041958 16.413147 36.320217
20.079144 16.414686 37.027905
20.922787 16.412796 37.985622
9.340744 16.196304 54.324215
8.9803505 16.176752 56.391384
9.7295237 16.176376 57.08337
10.571397 16.177551 57.666767
26.144421 16.420527 41.550755
22.707508 16.349298 47.248852
22.442257 16.330601 49.294224
22.465023 16.316908 50.979198
22.633556 16.30582 52.473232
22.505825 16.290413 54.237026
22.623562 16.279112 55.713154
21.775547 16.253483 58.098522
21.869984 16.242508 59.515003
22.462551 16.239132 60.436893
23.547131 16.243015 60.900444
24.794117 16.249157 61.229183
26.058811 16.255421 61.558582
27.099918 16.25839 62.095703
28.367428 16.264463 62.450771
30.462238 16.281855 62.142853
24.231678 16.184887 68.561127
23.808979 16.168619 70.174957
23.904102 16.15963 71.350479
23.641956 16.146076 72.77282
23.58746 16.135523 74.009453
23.70145 16.127369 75.099365
23.813564 16.119352 76.171249
24.113522 16.113888 77.094681
25.150379 16.117846 77.507904
26.066488 16.120216 78.01001
27.043705 16.123301 78.478058
29.117466 16.139805 78.259888
8.982233 15.157857 4.0460739
9.3187008 15.157857 6.5403023
9.9412651 15.157857 8.3892479
10.554219 15.157857 10.211105
11.158359 15.157857 12.005329
11.769586 15.157857 13.743713
13.008849 15.157857 14.315084
14.98521 15.157857 24.115849
15.337101 15.157857 25.99725
15.52493 15.157857 28.081036
15.712437 15.157857 30.10915
16.307781 15.157857 31.492138
16.889065 15.157857 32.870358
17.428288 15.157857 34.28233
18.000416 15.157857 35.623585
18.596889 15.157857 36.909542
19.115978 15.157857 38.27496
19.861546 15.157857 39.329311
20.657497 15.157857 40.310528
9.2846079 15.157857 56.022869
9.6696672 15.157857 57.154278
10.304112 15.157857 57.976543
20.325382 15.157857 48.148693
20.447666 15.157857 49.755795
20.718578 15.157857 51.16515
20.943989 15.157857 52.594654
21.102825 15.157857 54.064106
20.677792 15.157857 56.096188
20.269291 15.157857 58.056324
19.822048 15.157857 60.001308
20.170704 15.157857 61.134876
21.117878 15.157857 61.691433
22.111958 15.157857 62.210926
23.160564 15.157857 62.689083
24.216938 15.157857 63.169678
25.413982 15.157857 63.539055
26.296894 15.157857 64.185699
23.320652 15.157857 67.999626
23.342312 15.157857 69.274979
23.462208 15.157857 70.447357
23.63261 15.157857 71.559204
23.587101 15.157857 72.814095
23.544064 15.157857 74.041405
23.663616 15.157857 75.126633
23.912052 15.157857 76.101807
24.406757 15.157857 76.892349
25.339382 15.157857 77.380302
26.261351 15.157857 77.881302
27.406147 15.157857 78.243851
28.665417 15.157857 78.545654
30.665035 15.157857 78.404129
15.802708 13.834723 25.273479
16.145649 13.847623 27.138386
16.344082 13.862934 29.171879
16.512516 13.878374 31.195255
16.737736 13.892312 33.084835
17.276379 13.900067 34.492764
17.82246 13.907472 35.864597
18.401562 13.914082 37.168186
18.902134 13.921906 38.551838
19.378796 13.929943 39.940556
19.869953 13.937518 41.285755
9.7314568 14.126155 55.481647
9.6101503 14.141347 57.224796
10.249687 14.143509 58.039623
11.169514 14.141017 58.530094
12.464748 14.132498 58.611565
14.101437 14.118717 58.347546
14.2403 14.128971 59.714497
15.246655 14.125415 60.150341
16.188465 14.12294 60.661961
17.063435 14.121544 61.247066
18.17828 14.116557 61.602398
19.244892 14.112403 62.017429
20.132191 14.110989 62.611057
21.149364 14.10771 63.089886
22.07542 14.105819 63.658886
23.016415 14.103755 64.219765
24.007191 14.101031 64.743416
25.18166 14.095798 65.120171
23.176922 14.134663 68.1175
23.694195 14.138187 68.992538
23.502941 14.151241 70.415359
23.534496 14.161042 71.634628
23.646809 14.169574 72.769165
23.59528 14.180089 74.003693
23.945942 14.185162 74.923195
24.323755 14.189785 75.811508
24.870333 14.192164 76.572502
25.505322 14.19338 77.26828
26.579563 14.189072 77.671127
27.805225 14.182965 77.985962
28.890657 14.178696 78.403259
16.949726 12.544641 28.27319
17.158955 12.574306 30.25787
17.302807 12.605582 32.283985
17.414257 12.63718 34.301754
17.657276 12.663109 36.088306
18.183277 12.678156 37.457218
18.65929 12.694572 38.866268
19.139744 12.710398 40.243237
19.636349 12.72525 41.575024
10.23587 13.07725 54.870716
9.7648478 13.119629 57.041512
10.195146 13.130976 58.102825
10.977005 13.130497 58.748371
12.064297 13.120126 59.055805
13.082165 13.11223 59.453884
13.549092 13.121963 60.448608
14.632588 13.11218 60.78854
15.59155 13.106475 61.269032
16.541218 13.101187 61.766819
17.443775 13.097442 62.317837
18.534168 13.088173 62.694946
19.331272 13.08777 63.358288
20.188633 13.085619 63.967152
21.148281 13.080559 64.487457
22.114727 13.075415 65.008484
23.461834 13.059621 65.210312
24.541752 13.051634 65.656357
24.710606 13.069026 66.859734
24.446804 13.097906 68.388458
23.702335 13.139222 70.258728
23.598072 13.162522 71.585754
23.984921 13.17231 72.514771
24.045383 13.190485 73.672264
24.36211 13.201631 74.623322
24.740032 13.210979 75.51799
25.33967 13.214487 76.248688
26.063175 13.214795 76.891685
26.973675 13.210414 77.410812
28.208385 13.19807 77.725433
29.319815 13.188986 78.131973
33.8596 10.186646 0.23714828
34.849163 10.201988 1.7129478
17.961575 11.292397 31.350353
18.053089 11.341417 33.416767
18.095745 11.391757 35.49448
18.281376 11.433014 37.327312
18.542202 11.46916 39.017864
18.902599 11.499121 40.543491
19.398678 11.521265 41.869335
19.885235 11.543325 43.183529
10.143364 12.081398 56.593067
10.291192 12.112744 57.991512
11.211315 12.105278 58.4827
12.400425 12.084909 58.682922
13.218975 12.082843 59.305382
13.148745 12.123023 60.87381
14.030065 12.117609 61.414734
14.97781 12.109241 61.89323
15.932911 12.100731 62.372253
16.889759 12.092335 62.857471
17.837475 12.084538 63.359089
18.62718 12.083915 64.015198
19.415951 12.083346 64.672699
20.409718 12.073909 65.147514
21.71455 12.051344 65.358521
23.107929 12.025508 65.51329
24.490566 12.000669 65.699249
24.99802 12.01268 66.624023
25.065722 12.042505 67.891678
25.168507 12.070293 69.106964
25.519962 12.087509 70.10817
25.100933 12.135075 71.675064
24.920269 12.172291 73.028061
24.830446 12.205226 74.285843
25.171782 12.220844 75.213547
25.92944 12.220215 75.841766
26.820415 12.21454 76.38047
27.714573 12.208855 76.921432
28.615709 12.203014 77.462219
31.94865 8.5817547 0.17490768
30.497972 8.7928562 5.3422737
30.716717 8.8689537 7.8449135
29.265804 9.0698605 12.702061
29.818058 9.1148586 14.546812
18.581844 10.030177 32.684261
18.617802 10.098325 34.787464
18.776104 10.155817 36.672237
19.004246 10.20681 38.419636
19.162922 10.261314 40.213886
19.329632 10.313839 41.954838
19.653362 10.354296 43.464367
19.390873 10.433198 45.637066
12.318214 10.962929 55.642231
13.164856 10.959473 56.267673
12.697269 11.041342 58.353619
12.797474 11.084845 59.762886
13.575475 11.084398 60.420589
14.307384 11.086845 61.126511
15.017735 11.090569 61.852615
15.848988 11.086817 62.455776
16.681301 11.083087 63.060513
17.532307 11.078325 63.649986
18.470737 11.068506 64.161148
19.459431 11.055969 64.632996
20.46693 11.042621 65.09639
21.568119 11.024206 65.486603
22.764019 11.000833 65.807716
24.358784 10.955645 65.809662
25.376408 10.943346 66.313721
25.645741 10.972286 67.426132
25.839811 11.004715 68.579613
26.192791 11.027956 69.590897
26.840389 11.03508 70.366287
26.968882 11.069363 71.519592
26.278408 11.145617 73.242493
26.050541 11.196527 74.593918
26.823292 11.195354 75.225044
27.743465 11.186749 75.757324
28.667652 11.178106 76.291916
30.223518 6.9861956 -0.13458633
28.523846 7.2780585 5.4986992
27.902004 7.455749 9.2846336
28.263401 7.5333962 11.485296
28.716755 7.6000648 13.498219
29.353199 7.6476808 15.205639
30.267263 7.6683049 16.496031
19.147518 8.785161 34.070057
19.277973 8.8601875 36.007702
19.434216 8.930912 37.862926
19.586086 9.000145 39.678097
19.749226 9.0665913 41.435246
19.908596 9.1316452 43.155239
19.450779 9.2469912 45.56609
19.734303 9.2978172 47.047115
11.97392 10.007629 57.618023
12.619123 10.018549 58.440311
13.291477 10.027027 59.226688
14.031704 10.029932 59.936035
14.74474 10.034894 60.671978
15.456402 10.039846 61.40649
16.166683 10.04479 62.139584
16.979427 10.041883 62.770134
17.841869 10.035332 63.3549
18.735241 10.026642 63.914371
19.631405 10.017942 64.475967
20.56657 10.006617 65.007332
21.801708 9.9741096 65.282288
22.857273 9.9549866 65.727875
23.943699 9.9341125 66.157471
25.322674 9.8934345 66.35778
26.304974 9.8807602 66.897003
26.637405 9.9123821 67.953056
26.89922 9.9480972 69.047783
27.338818 9.9712906 69.991264
26.228037 5.6909609 3.292038
26.6217 5.7879305 5.5974083
27.14748 5.8662262 7.6382408
27.451809 5.9682159 9.9683189
27.667423 6.0774965 12.36965
28.487965 6.1146107 13.829992
29.606815 6.1171188 14.846195
30.725048 6.1196251 15.861835
19.869518 7.6391926 37.29932
20.0144 7.7236185 39.135784
20.173878 7.8043237 40.909397
20.287151 7.8876719 42.696735
19.797512 8.0297947 45.155293
20.079433 8.0913877 46.647114
20.384502 8.149169 48.081661
20.693531 8.2051468 49.483044
13.934269 8.9390841 58.528996
14.621099 8.9483805 59.310059
15.305645 8.9576712 60.089039
15.98814 8.9669342 60.865696
16.668606 8.9761696 61.640026
17.347042 8.9853783 62.41206
18.169025 8.9815159 63.043026
19.091236 8.9688635 63.58223
20.018253 8.956069 64.122726
21.117168 8.9286594 64.515274
22.12949 8.9092655 64.995575
23.056271 8.8975391 65.55751
24.115383 8.874958 66.013611
25.181896 8.8522377 66.473236
26.518818 8.8077707 66.725357
27.738758 8.7737293 67.087875
32.722965 8.4373951 64.570389
25.8494 4.1674566 3.9090157
26.384472 4.2597818 5.974926
26.63345 4.3891335 8.4372902
27.320154 4.4546537 10.168251
28.131802 4.5013857 11.680571
28.961994 4.5443048 13.142616
20.448277 6.4314175 38.58643
20.5658 6.5313416 40.424076
20.658909 6.6316004 42.246456
20.147694 6.800518 44.740414
20.435566 6.8722038 46.234371
20.748554 6.9392195 47.668865
21.05624 7.0051937 49.080677
21.260761 7.0811329 50.576649
21.493931 7.1520805 52.010578
21.49403 7.2468619 53.657536
21.383305 7.3514137 55.378658
17.296368 7.878757 61.015228
18.005703 7.8870001 61.770496
18.764034 7.889936 62.475815
19.529865 7.8920317 63.173008
20.463116 7.8769689 63.716526
21.431858 7.8586478 64.234032
22.256245 7.8551579 64.884689
23.437511 7.8164372 65.23114
24.956013 7.7455277 65.309242
26.359524 7.6872411 65.507469
27.826977 7.6240349 65.675377
30.982418 7.4019885 64.539795
26.302738 2.3239727 0.14312363
25.564335 2.6441298 4.3735313
26.37322 2.7047319 5.9928398
27.320065 2.7415762 7.3699608
28.124821 2.7995834 8.9462547
20.80476 5.6394424 45.806477
21.116062 5.7168636 47.252171
23.453999 5.5294971 46.42075
23.826839 5.5984888 47.791363
24.221874 5.6630173 49.113277
21.909321 6.1711683 54.843693
21.774815 6.2915516 56.557896
22.137516 6.3491106 57.745953
22.755566 6.3748665 58.670799
23.370014 6.4004717 59.59026
23.94521 6.4300966 60.536953
24.338161 6.4801273 61.636662
23.921047 6.6216555 63.42849
25.085003 6.5813961 63.820698
26.576191 6.5053844 63.951679
26.370462 0.93124676 3.0599556
27.300739 0.9796505 4.5167694
-0.55813408 32.313015 49.561562
0.3770771 32.246788 50.326824
1.3794689 32.25116 50.682762
2.6862736 32.526989 49.48251
1.4199944 31.218636 50.462925
2.3066769 31.123545 51.426529
3.2816639 31.108158 51.900059
5.6155033 31.359524 51.139576
6.8018608 31.482399 50.785202
4.2281361 30.011627 52.495205
5.1763706 29.982626 53.061596
6.4304028 30.153881 52.334732
7.9227018 30.458681 50.758564
5.498724 29.126013 51.650703
6.1441803 28.91087 53.52866
7.0621128 28.870371 54.186375
8.0831566 28.890087 54.426876
4.09202 27.807085 53.12154
4.9656525 27.742737 53.983856
6.4468002 28.020683 52.266327
7.6738453 28.140614 51.749802
8.0627584 27.823357 54.50457
8.9411812 27.770569 55.273727
9.917985 27.768177 55.666492
5.0837688 26.756718 53.466881
6.0019627 26.722759 54.121925
7.1192226 26.78857 53.958912
8.4808588 26.963455 52.911751
10.017647 26.760498 55.31757
10.813753 26.681408 56.330448
11.755878 26.666672 56.822361
13.258327 26.871569 55.560028
17.642422 26.674118 59.004082
18.672733 26.691139 59.245087
6.1488152 25.739235 53.509361
6.9747543 25.667261 54.53434
8.0627584 25.71244 54.50457
12.681173 25.601938 57.357944
13.576303 25.574287 57.972431
14.462542 25.545395 58.595749
17.581253 25.60857 59.164227
18.455433 25.578358 59.795967
19.464006 25.58847 60.081501
20.476978 25.599287 60.361801
21.976357 25.742462 59.523117
23.091536 25.776142 59.617092
24.079552 25.775124 60.004513
25.067226 25.774067 60.392189
26.15229 25.797207 60.578541
27.251213 25.822659 60.747402
28.352057 25.847437 60.923615
29.457008 25.872093 61.102612
30.567944 25.897064 61.2808
31.683712 25.92207 61.46048
32.861935 25.959658 61.540001
7.0363178 24.640856 54.289127
7.8521538 24.576384 55.306911
9.006628 24.641479 55.034882
14.467833 24.508228 58.580406
15.365599 24.487091 59.154816
16.265718 24.467857 59.709305
20.562765 24.576794 60.15744
21.58083 24.586731 60.437466
22.600464 24.59655 60.719379
23.621342 24.606184 61.003799
24.669405 24.621571 61.235603
25.723684 24.63763 61.462395
26.8034 24.658512 61.646072
27.883301 24.678509 61.839546
28.974827 24.700066 62.020374
30.077528 24.722988 62.190483
31.181105 24.745136 62.369427
32.303268 24.770023 62.525452
33.407578 24.790493 62.723068
34.419022 24.792675 63.08548
36.23661 24.943634 62.126293
7.0323429 27.75423 2.9404297
8.5680504 27.786543 3.1288681
7.8251781 23.520704 55.409698
8.8084936 23.522919 55.757973
16.29896 23.441744 59.619339
17.204861 23.42679 60.149635
18.110992 23.412718 60.669155
19.511963 23.513393 59.963707
22.879915 23.607376 60.092102
23.908489 23.616093 60.377583
24.832188 23.603102 60.890472
25.845997 23.608585 61.210152
26.860802 23.614012 61.530888
27.876745 23.619415 61.85236
28.955469 23.63623 62.057205
30.072348 23.659256 62.200096
31.238808 23.69014 62.265083
32.54076 23.743362 62.106537
33.285019 23.699282 62.934013
34.212502 23.68758 63.432457
35.358643 23.712219 63.566635
6.9778347 26.154434 3.2752037
8.5357466 26.193863 3.3150139
7.8347263 22.478191 55.373299
8.6629372 22.435617 56.289192
9.6910887 22.451309 56.460918
18.179087 22.394966 60.496521
19.105896 22.387102 60.961266
20.161749 22.404982 61.112778
21.226669 22.423683 61.256176
26.363361 22.642036 60.143269
27.391163 22.646957 60.466549
28.472267 22.660501 60.688744
29.580791 22.67791 60.867016
30.710434 22.697935 61.016487
32.170532 22.768528 60.58007
32.81081 22.711327 61.630188
33.543114 22.670147 62.489803
34.24234 22.625734 63.382332
35.082432 22.603256 64.019768
37.33709 22.78096 62.378448
6.9416485 24.56912 3.4975433
8.500618 24.604156 3.5173874
8.6094551 21.382814 56.484379
9.5663233 21.3799 56.897747
21.342983 21.404778 60.987293
22.48044 21.431131 60.9888
23.393311 21.421171 61.501114
25.175272 21.544039 60.163105
32.737003 21.62262 61.760376
33.445827 21.584511 62.657238
26.082649 20.534794 77.091171
27.251362 20.575609 76.867027
36.287628 21.565186 64.060226
6.8080196 22.956362 4.3182182
8.3388577 22.979362 4.4494858
9.6474342 22.934378 5.8362122
10.748007 22.836023 8.195713
11.265794 22.592808 13.188602
12.061747 22.442879 16.448568
12.611125 22.246952 20.521202
13.289309 22.097687 23.723114
14.446947 22.066919 24.771866
15.601326 22.037903 25.784866
8.5573845 20.334673 56.674435
9.4469585 20.319382 57.315666
10.771292 20.387768 56.473251
23.934181 20.447594 60.321541
24.260534 20.363586 62.102448
25.185534 20.357685 62.572136
27.340542 20.501081 60.568138
32.6385 20.534437 61.934128
24.596403 19.569399 77.88858
25.600624 19.588224 77.901016
26.743973 19.6206 77.699417
27.921314 19.65518 77.467361
37.644093 20.532751 63.879326
6.5126095 21.318457 6.1326866
7.5842609 21.226931 8.7976189
8.6254635 21.138302 11.379541
9.6347961 21.051802 13.896811
10.542647 20.952339 16.694794
11.3889 20.849813 19.544706
12.206015 20.750908 22.294298
13.071079 20.669399 24.633448
13.956493 20.598236 26.725401
15.038 20.566082 27.93096
8.5051594 19.290766 56.865028
9.3322096 19.268997 57.717438
10.453743 19.293526 57.541309
20.173956 20.578373 29.589809
26.177662 19.319717 62.901829
27.09988 19.315002 63.370308
28.569824 19.361282 62.791237
24.217064 18.72583 76.789001
24.302664 18.662024 78.39415
25.335129 18.679935 78.347061
26.312159 18.692614 78.407845
27.39999 18.713736 78.302788
28.585964 18.741837 78.063293
6.5234451 19.780457 6.0661659
7.5914421 19.711006 8.7562294
8.6053133 19.639631 11.488815
9.587882 19.570459 14.137049
10.48113 19.493925 16.993082
11.323547 19.416912 19.845436
12.139227 19.342974 22.58659
13.023635 19.284939 24.831375
13.908123 19.231716 26.918072
14.770234 19.179867 28.951065
8.4487267 18.250616 57.070984
9.2761812 18.234591 57.913597
10.319199 18.244274 57.99382
18.902863 19.083328 33.701801
20.088892 19.079462 34.281864
21.64912 19.114391 33.73008
23.242006 19.15041 33.154991
28.109777 18.278431 63.666878
24.18936 17.9454 73.112526
24.001122 17.874989 75.354294
23.751572 17.803436 77.6101
24.082405 17.771885 78.773262
25.036625 17.780685 78.848572
26.053366 17.792995 78.832397
27.019993 17.801817 78.911736
28.054079 17.814312 78.896156
29.468708 17.848503 78.313004
6.6014309 18.249914 5.5871391
7.6427536 18.199686 8.4605865
8.6507845 18.151064 11.242165
9.6227856 18.103489 13.958332
10.549107 18.055784 16.663498
11.444643 18.009472 19.288214
12.346045 17.967903 21.681381
13.040001 17.910757 24.763098
13.840592 17.867783 27.187023
14.705345 17.833679 29.198265
8.3926344 17.215109 57.275688
9.220396 17.204618 58.108917
10.18589 17.205338 58.4422
11.741692 17.249329 56.868252
19.414244 17.724394 36.383488
20.529301 17.718643 37.092846
21.881739 17.729046 37.096714
23.203478 17.736839 37.217434
24.490267 17.741987 37.455166
25.758507 17.745714 37.755898
26.600441 17.724005 39.147526
27.689739 17.717709 39.873894
25.743769 17.541519 47.814846
26.708031 17.533369 48.584846
24.995695 17.382988 55.342884
25.665611 17.363781 56.545506
26.261833 17.341742 57.859489
26.83889 17.319775 59.162659
27.394445 17.29776 60.459969
28.07863 17.282814 61.45789
23.597111 17.029005 72.256088
23.583725 16.988733 74.235916
23.720039 16.956787 75.862625
23.562302 16.913338 77.943962
24.170696 16.90431 78.6213
24.931076 16.901993 79.025894
25.767754 16.902897 79.300949
26.75766 16.909935 79.332138
27.784147 16.918159 79.318848
28.974785 16.932455 79.069
30.467892 16.957771 78.391579
6.8242512 16.718632 4.2186089
7.8716831 16.693041 7.1414375
8.8751154 16.667673 10.025398
9.8404293 16.642824 12.843697
10.771969 16.618647 15.582922
11.689133 16.596025 18.163153
12.610395 16.575642 20.524368
13.405469 16.551189 23.238586
13.983058 16.519129 26.619572
14.618176 16.492062 29.530348
8.7750282 16.202122 55.880119
9.1849041 16.17984 58.233185
10.060241 16.176825 58.864811
11.297418 16.187292 58.305481
18.94854 16.424604 37.834213
20.001907 16.420141 38.676605
20.915245 16.411297 39.897388
21.846075 16.403549 41.016647
22.756124 16.395603 42.147446
23.979973 16.397661 42.412167
21.908056 16.302076 51.043209
22.125111 16.277548 53.544151
22.069845 16.246666 56.567162
21.315319 16.198256 61.051247
22.122747 16.193872 61.791687
23.069214 16.193317 62.20792
24.08115 16.19445 62.48275
25.096512 16.195616 62.755707
26.020786 16.194521 63.216644
23.270317 16.106398 70.853065
23.465527 16.090382 72.506538
23.086615 16.062016 75.158028
23.250214 16.046883 76.712296
23.422207 16.032547 78.191086
24.243675 16.03264 78.495697
25.026348 16.031918 78.865845
25.781158 16.030653 79.278961
26.548725 16.02969 79.666946
27.597612 16.034323 79.610916
28.694145 16.039713 79.498535
29.898115 16.046957 79.244263
31.407946 16.059673 78.567307
8.3929596 15.157858 4.1377525
9.0919476 15.157858 8.8492546
10.061552 15.157858 11.711229
11.000489 15.157858 14.474918
12.26349 15.157858 15.520254
14.37912 15.157858 25.042036
14.905548 15.157858 28.43556
15.372145 15.157858 31.803492
9.1563978 15.157858 58.333
9.9363194 15.157858 59.281593
11.017828 15.157858 59.209961
18.498356 15.157858 39.236622
19.365097 15.157858 40.588894
14.034599 15.157858 59.835808
21.169678 15.157858 42.909813
19.857113 15.157858 49.991642
20.207483 15.157858 52.288681
20.5487 15.157858 54.489319
19.778156 15.157858 59.309753
19.656445 15.157858 62.316544
20.538954 15.157858 62.845993
21.442513 15.157858 63.3186
22.361588 15.157858 63.751163
23.285402 15.157858 64.169838
24.224188 15.157858 64.554573
22.866055 15.157858 69.547646
22.975082 15.157858 71.429939
23.221889 15.157858 72.970268
23.084358 15.157858 75.162201
23.256878 15.157858 76.700233
23.66258 15.157858 77.767075
24.31691 15.157858 78.369637
25.122187 15.157858 78.704819
25.87859 15.157858 79.119125
26.72221 15.157858 79.388939
27.550018 15.157858 79.685455
28.541149 15.157858 79.732704
29.619915 15.157858 79.660599
15.332539 13.793278 26.808853
15.808128 13.825961 30.212353
9.1279497 14.13812 58.432587
9.8813381 14.145689 59.466507
10.850848 14.144809 59.750137
11.891237 14.141474 59.81871
13.306731 14.125471 58.781952
13.685329 14.144962 60.847916
14.613899 14.145532 61.258751
15.522139 14.146705 61.721291
16.385504 14.149177 62.294743
17.299156 14.150024 62.727242
18.330286 14.147443 62.866653
19.159637 14.150655 63.500076
20.051105 14.152006 63.973747
20.956364 14.152922 64.409821
21.819502 14.154888 64.933395
22.693373 14.156489 65.424988
23.577501 14.157762 65.888153
22.840965 14.19825 69.597992
23.415737 14.205872 70.568924
23.096443 14.233891 73.209038
23.129816 14.25272 75.077888
23.504879 14.263174 76.251724
23.941254 14.27187 77.275513
24.543257 14.276684 77.980057
25.214882 14.279854 78.54908
26.023088 14.2801 78.882065
26.896694 14.27902 79.109337
27.750549 14.278371 79.371452
28.559826 14.27861 79.704117
29.507038 14.276212 79.829529
9.3275547 13.102655 57.733738
9.8798428 13.133633 59.47155
10.747995 13.139308 60.08287
11.761396 13.134301 60.223186
12.62739 13.13974 60.821999
13.387608 13.151877 61.71064
14.333563 13.151298 62.043381
15.238142 13.153343 62.489738
16.12887 13.156116 62.966618
17.00366 13.159678 63.476349
17.974337 13.157527 63.741081
18.7808 13.164699 64.40258
19.605694 13.170496 65.003403
20.484619 13.173125 65.468735
21.361231 13.175748 65.932831
22.255756 13.177336 66.352783
23.32583 13.170146 66.407135
24.219473 13.171832 66.831573
23.653652 13.242611 70.104057
23.142532 13.307788 73.121323
23.41021 13.334857 74.557785
23.787281 13.355941 75.741013
24.223919 13.373574 76.776909
24.81432 13.383944 77.513512
25.443514 13.392284 78.164963
26.195244 13.395277 78.599625
27.072582 13.393101 78.827469
27.952213 13.390914 79.055664
28.765804 13.391369 79.388863
9.9330273 12.115458 59.292656
10.861633 12.117524 59.715252
11.870226 12.110941 59.884178
12.311033 12.163269 61.771996
13.137411 12.17386 62.435646
14.058409 12.174653 62.813499
14.9557 12.177627 63.25396
15.850427 12.180666 63.695595
16.723269 12.18548 64.187172
17.610413 12.1888 64.635117
18.410109 12.199303 65.285667
19.203671 12.209771 65.93277
20.095772 12.211842 66.341568
21.100277 12.205046 66.501938
22.118475 12.197529 66.643845
23.197321 12.185848 66.672134
24.13459 12.184989 67.001915
24.380713 12.233301 68.683418
24.534784 12.285923 70.471359
24.305817 12.362389 72.896507
24.162882 12.429944 75.061737
24.510544 12.462714 76.271332
25.088839 12.479416 77.041031
25.827431 12.485405 77.519974
26.57235 12.490776 77.980972
27.314425 12.496117 78.439911
28.133305 12.496707 78.772095
29.200489 12.482824 78.723534
11.795815 10.966973 56.693161
11.98436 11.079105 59.528625
12.506086 11.138281 61.186249
13.329975 11.153566 61.877647
14.103275 11.17446 62.687943
14.911136 11.1898 63.374561
15.740232 11.201683 63.984089
16.564491 11.213482 64.589691
17.41675 11.22142 65.11087
18.304691 11.224941 65.536804
19.190914 11.22847 65.962265
20.088612 11.230599 66.357643
21.014681 11.229675 66.688599
21.991808 11.223612 66.912392
23.059803 11.208817 66.955719
24.147964 11.192738 66.975075
24.887493 11.210414 67.693184
25.075722 11.278448 69.441765
25.473717 11.324559 70.730148
26.121117 11.346588 71.520325
25.03516 11.518652 75.345932
25.475204 11.553629 76.376022
26.235165 11.560472 76.834946
26.992378 11.567278 77.291901
27.746735 11.574059 77.747131
28.498096 11.580824 78.200867
11.385444 9.9945374 58.02071
11.983749 10.059526 59.530525
12.749077 10.091669 60.456581
13.556538 10.114805 61.221142
14.334429 10.141317 62.040947
15.104189 10.167551 62.85218
15.887102 10.190291 63.599586
16.714865 10.205139 64.208481
17.557232 10.217085 64.765762
18.402401 10.228012 65.304031
19.244087 10.238857 65.83934
20.132002 10.243004 66.260254
21.05917 10.241846 66.591576
22.054108 10.232143 66.780304
22.921738 10.238672 67.240433
24.000092 10.219373 67.27182
24.932499 10.218221 67.605255
25.690411 10.237345 68.27179
25.959286 10.311142 69.82946
26.41493 10.361127 70.988968
27.034679 10.391216 71.818909
30.400478 10.127173 67.898804
26.866043 10.595142 75.775017
27.551723 10.612253 76.374268
35.541016 9.8935699 65.256691
25.767273 5.4634323 6.0360374
26.543468 5.6248417 8.9844131
26.954086 5.8533688 12.895859
19.492195 7.6891737 40.207253
13.86455 9.0447083 60.328583
14.625589 9.0816383 61.226021
15.375808 9.1184416 62.117241
16.116873 9.1548223 62.998032
16.86788 9.1874275 63.82058
17.710979 9.2023668 64.388054
18.566877 9.2143707 64.912193
19.423183 9.2256947 65.425331
20.29921 9.2333012 65.884918
21.328062 9.2166996 66.00515
22.122337 9.2366104 66.635658
23.018894 9.2403812 67.040077
23.919319 9.2434196 67.433922
24.909489 9.2335653 67.650223
25.899002 9.2242279 67.874771
26.461164 9.2734699 68.898529
26.852638 9.3434238 70.197372
29.453957 9.1219015 67.551453
31.040558 9.0391016 66.797119
32.671822 8.9539318 66.020905
34.349136 8.8663578 65.222778
25.582932 3.8967199 6.6560326
26.187599 4.1274071 10.135647
27.259832 4.2266922 11.943375
28.244514 4.3406553 13.924389
20.082737 6.5776768 42.30978
19.77803 6.905139 46.804886
20.228758 7.0477982 48.986053
16.468365 8.0794392 62.07782
17.208227 8.1218567 62.957771
17.983027 8.1549492 63.719742
18.78178 8.1816063 64.40023
19.642624 8.1950264 64.918045
20.5886 8.1918983 65.235329
21.395496 8.2142353 65.858101
22.212875 8.2336493 66.443695
23.11639 8.2372141 66.83902
24.082872 8.2299366 67.105698
25.141197 8.2077484 67.197472
26.100328 8.2026176 67.491562
27.111626 8.1894188 67.691978
28.392582 8.1348228 67.412415
30.088223 8.0192585 66.432648
31.705896 7.9199448 65.651962
25.671101 2.2611885 6.3594894
26.802528 2.3711262 8.1463356
28.074957 2.4337626 9.4041786
20.058971 5.653657 46.01857
20.514093 5.8177147 48.213955
20.95573 5.975728 50.329723
21.611851 6.0742311 51.794113
21.356327 6.3774452 55.432777
20.982021 6.6914186 59.158653
21.52985 6.7877817 60.555313
20.867477 7.1373158 64.609344
21.792507 7.1397161 64.992249
22.716984 7.1421156 65.374939
23.693106 7.1341591 65.649742
24.76424 7.1081438 65.738319
25.808331 7.0884094 65.893944
26.858452 7.0684061 66.048584
28.14727 7.0059242 65.77095
29.456137 6.9424706 65.488998
30.785553 6.8780203 65.202621
26.31168 0.43006229 4.2049828
6.6674461 27.928232 2.1776657
8.4152317 28.005215 2.4149055
10.013308 27.998301 2.0634346
0.71677017 32.994255 49.054428
1.7045994 32.936943 48.477688
6.7606182 26.359646 2.6677055
8.4598045 26.412252 2.7067947
10.075537 26.415075 2.4220695
0.92365837 31.941071 49.720318
2.3462315 32.055634 50.180916
3.1871815 31.936695 49.266659
6.7862854 24.748009 2.8947144
8.4835739 24.801294 2.914093
10.16248 24.846664 2.8866119
3.9208317 31.125675 51.230259
4.73386 30.987354 50.254383
6.0697689 31.084362 50.580166
7.1089458 31.044918 50.149994
6.7591839 23.094618 2.9166489
8.6337175 23.274965 3.6369438
10.320938 23.331709 3.6571007
5.4502258 30.205246 52.220093
6.3657818 30.109577 51.513161
7.608326 30.174789 51.64386
8.2149906 29.909908 50.049286
7.7647419 22.184525 6.9563751
9.8292618 22.551376 8.6183167
11.608612 22.725166 9.2548676
6.9380379 29.293266 53.15469
7.8444042 29.188934 52.434536
9.0907259 29.267345 52.613129
8.3445082 21.025345 9.3349762
11.090995 21.982822 13.862225
13.677254 22.895348 18.182795
15.25206 22.99958 18.435616
5.6099491 28.068388 52.965012
6.4761505 27.934631 52.135948
8.3866425 28.388229 54.035423
9.5613289 28.437485 54.059715
10.459869 28.322323 53.31715
8.3395987 19.431522 9.439888
13.009899 22.084278 21.771946
14.903206 22.503149 23.501728
16.429567 22.618935 23.791172
17.821568 22.613995 23.504684
5.5652637 26.931007 53.027721
6.827961 27.019495 53.207844
7.895256 26.995979 52.896042
9.7952414 27.486753 54.855183
11.044634 27.59322 55.122684
11.898594 27.445538 54.2649
13.659924 21.2127 24.512747
15.374154 21.509823 25.592743
16.989851 21.739016 26.370628
18.342951 21.718412 26.018801
19.711815 21.71286 25.73506
6.6732349 25.811249 52.980881
8.1178627 26.020668 53.648315
9.0703592 25.922878 53.030537
11.147442 26.574417 55.561829
12.475782 26.749561 56.097412
13.300135 26.57476 55.15836
18.654175 27.449734 58.075203
19.447716 27.240913 56.98938
13.775542 19.88797 25.079525
15.843048 20.552937 27.672848
17.45413 20.808762 28.517075
18.864176 20.870924 28.53059
20.196409 20.849876 28.185543
8.2898312 25.021729 54.265579
9.3603077 25.00201 53.979969
13.882236 25.921997 57.05801
14.933617 25.916828 56.838142
15.867476 25.816149 56.232494
17.496595 26.2922 57.958969
18.829123 26.547138 58.79697
19.925108 26.60791 58.850311
20.666025 26.336365 57.551277
13.897195 18.572811 25.670582
16.320854 19.643913 29.788738
17.881521 19.87833 30.496193
19.367975 20.052069 30.958481
20.678167 20.030771 30.621031
21.990294 20.009443 30.283089
8.4582491 24.027143 54.872478
9.5836382 24.048071 54.746014
10.339771 23.79805 53.58506
13.931164 24.88554 57.340302
15.334917 25.167706 58.225876
16.287403 25.088524 57.724052
17.521208 25.25082 58.153187
18.883554 25.543873 59.090912
20.052591 25.677101 59.413795
21.03285 25.634014 59.053818
22.107559 25.685345 59.060768
23.137274 25.69249 58.896156
24.259205 25.806072 59.147865
25.370163 25.918467 59.396797
26.447937 26.001171 59.530994
27.511444 26.074421 59.629364
28.568241 26.147287 59.727432
29.618271 26.21961 59.824554
30.661715 26.291553 59.921379
31.69857 26.363049 60.017597
8.4416037 22.905319 54.991879
9.7728653 23.079018 55.417885
10.620131 22.891159 54.526871
15.207132 23.992096 57.951454
16.644293 24.332581 59.007072
17.69511 24.344133 58.85437
18.622665 24.23867 58.269135
19.558022 24.132114 57.678177
21.11858 24.666977 59.46759
22.279974 24.816391 59.830978
23.388252 24.919575 60.024315
24.490295 25.025719 60.230354
25.600578 25.153564 60.519356
26.676485 25.249958 60.692337
27.728773 25.324463 60.784531
28.770126 25.391975 60.851532
29.810047 25.466331 60.945465
30.843521 25.540386 61.039429
31.870323 25.613647 61.131573
32.891003 25.687019 61.225288
33.892471 25.73177 61.211151
34.877678 25.74622 61.082077
35.115417 10.659567 2.2827034
8.4251604 21.778862 55.112522
9.8904848 22.062469 55.894318
10.787817 21.908226 55.150375
17.88924 23.466095 59.623142
19.037189 23.581402 59.837105
19.960855 23.473064 59.25938
20.892439 23.363802 58.676708
22.135136 23.597971 59.316055
23.22633 23.674286 59.395309
24.4582 23.934399 60.133438
25.646923 24.165411 60.77116
26.720852 24.262629 60.931606
27.787098 24.360123 61.094536
28.846537 24.459343 61.265175
29.892591 24.549587 61.404869
30.93265 24.642214 61.554565
31.963713 24.731955 61.695198
32.987675 24.822037 61.838448
34.009468 24.923939 62.026161
35.010902 24.995117 62.103157
35.962563 24.941769 61.725197
36.918617 24.888683 61.347389
35.249805 15.183043 25.471998
36.43177 14.380505 22.25721
36.79232 8.9453964 1.9235229
8.4931536 20.713915 55.455074
9.9789715 21.025986 56.291344
10.915503 20.898911 55.660789
11.69907 20.630995 54.555443
19.077751 22.564922 60.081944
20.282866 22.756418 60.539909
21.273258 22.72179 60.229767
22.201824 22.610765 59.658096
23.138287 22.498795 59.081558
24.08275 22.385868 58.500107
25.035439 22.272167 57.914341
26.437252 22.797739 59.52977
27.62146 23.051451 60.214115
28.764961 23.270895 60.7836
29.8505 23.418877 61.108475
30.918354 23.555309 61.395386
31.926374 23.592113 61.33733
32.914143 23.590696 61.146423
34.068192 23.988907 62.353088
35.097034 24.137234 62.689869
36.074211 24.166874 62.612003
36.986107 23.985815 61.793072
35.533546 14.652781 28.69631
36.647526 13.643873 24.879404
37.798645 12.406852 20.239897
8.5611191 19.649382 55.797501
10.058991 19.98418 56.665211
11.056201 19.905371 56.207005
11.838706 19.628178 55.108055
21.283808 21.673378 60.353165
22.359749 21.736906 60.368862
23.421898 21.788784 60.347157
24.418915 21.757523 60.052238
25.360243 21.643234 59.482738
26.308727 21.526783 58.904465
24.137215 16.395359 41.694527
26.149263 17.741806 45.938934
27.404079 17.89266 46.22081
28.491802 17.738834 45.48801
29.464897 17.3186 43.862083
30.492102 16.950062 42.403469
34.026314 22.80246 61.832466
35.162361 23.229275 63.084179
36.135284 23.250851 62.975212
37.027481 22.995699 61.931305
37.791382 22.146774 58.872849
36.765686 12.50449 25.959524
37.893806 11.115437 20.978037
8.6233501 18.58042 56.12487
10.148267 18.951748 57.063896
11.178444 18.900517 56.700943
11.946263 18.600834 55.567104
23.444515 20.751364 60.503674
24.666561 21.034122 61.207268
25.599682 20.91762 60.647087
26.540613 20.800138 60.082203
27.489468 20.681669 59.512573
26.621233 17.324232 48.591572
27.823706 17.431545 48.719627
28.975044 17.450609 48.56596
30.031464 17.264069 47.751358
31.097801 17.068933 46.906509
34.085007 21.85877 62.157822
35.222343 22.308626 63.429012
36.176498 22.272781 63.131157
37.08717 22.068617 62.285789
38.076546 22.13349 62.313828
36.815998 11.046703 25.948723
8.6898899 17.515322 56.463463
10.239101 17.922607 57.466511
11.300104 17.899258 57.19268
12.043453 17.566681 55.995766
20.282938 15.272777 47.154663
22.107697 16.219397 49.820099
25.871145 20.262287 61.96196
26.837883 20.201403 61.586567
27.775124 20.08205 61.030891
28.720182 19.961708 60.470589
29.673244 19.840561 59.906235
30.634274 19.718296 59.336815
30.479603 17.026535 50.810432
32.96069 20.414532 61.112045
34.250229 21.205832 63.384499
35.286617 21.402407 63.814308
36.241859 21.372534 63.539646
37.19799 21.338074 63.250233
38.141014 21.235401 62.746483
8.7529335 16.447399 56.792927
10.32939 16.894936 57.867352
11.415365 16.89592 57.66605
12.135289 16.529684 56.408653
21.41062 15.661766 52.004776
23.427391 17.014051 55.768024
24.58993 17.144751 55.949696
27.000134 19.403347 62.415375
28.053144 19.498459 62.50864
28.986662 19.377329 61.961929
29.92794 19.255302 61.411011
30.876972 19.132158 60.855217
31.833904 19.007988 60.294792
33.104805 19.672516 62.091446
34.320263 20.307503 63.808033
35.354103 20.508863 64.230392
36.304344 20.46546 63.918648
37.257484 20.421926 63.605961
38.204887 20.338568 63.172356
10.41482 15.864514 58.254883
11.480546 15.846001 57.999657
12.133327 15.397464 56.551033
22.873281 16.661751 58.267494
24.045179 16.840956 58.576714
25.184351 16.985329 58.789139
26.313992 17.129583 59.003006
28.114655 18.540796 62.835575
29.238129 18.792639 63.368618
30.175911 18.685705 62.876106
31.113287 18.561872 62.333717
32.058365 18.437023 61.786873
33.191952 18.795271 62.63253
34.408337 19.465683 64.385323
35.421047 19.61698 64.642014
36.369595 19.570984 64.327599
37.325764 19.543978 64.067879
38.268967 19.446648 63.60273
10.500131 14.835623 58.641842
11.605475 14.858458 58.499073
12.474825 14.629509 57.681892
13.389757 14.435063 56.954639
21.124821 16.068529 60.16275
22.357758 16.347099 60.726078
23.483913 16.487698 60.915596
24.578918 16.592121 61.007698
25.667042 16.696104 61.099846
26.757254 16.815884 61.236691
27.833372 16.923155 61.340481
28.902269 17.029598 61.443268
30.346382 17.975103 63.870888
31.343378 18.006611 63.773262
32.276894 17.881165 63.239494
33.262634 17.878672 63.046928
34.488358 18.606876 64.895264
35.486877 18.724699 65.043777
36.437416 18.689501 64.764458
37.395027 18.67511 64.543213
38.324654 18.517048 63.917065
10.617648 13.841827 59.114788
11.800962 13.950956 59.193359
12.814651 13.879484 58.805382
14.369625 14.424288 60.016479
15.626308 14.654074 60.414253
16.93136 14.961102 61.016121
20.372957 15.380104 61.525055
21.524426 15.551069 61.780281
22.657921 15.710681 62.007553
26.999857 21.021778 75.849182
27.813522 20.943199 75.479233
25.937222 16.079092 62.407402
27.033794 16.236855 62.636513
28.095566 16.344587 62.734093
29.125538 16.39888 62.690163
30.122498 16.385727 62.466297
31.430914 17.131935 64.279648
32.167534 16.488125 62.364162
33.345299 16.999716 63.554558
34.567924 17.752506 65.402229
35.553917 17.839762 65.457542
36.509342 17.828276 65.246094
37.461781 17.800314 64.989731
38.380283 17.58798 64.230888
10.447891 12.544206 58.819729
11.804379 12.84024 59.355106
13.391827 13.420769 60.606796
14.610088 13.605093 60.86985
15.859743 13.841522 61.266144
17.152649 14.151115 61.849693
18.290134 14.27925 61.97789
19.479607 14.489717 62.31617
20.64119 14.678168 62.600906
25.394217 20.286512 76.684242
26.255598 20.292934 76.539337
27.1166 20.299355 76.394501
27.975857 20.303432 76.243729
28.73807 20.129904 75.636902
27.303528 15.672098 64.001846
28.327351 15.730855 63.966141
29.321396 15.731905 63.781925
30.309217 15.718491 63.560257
31.322466 15.767317 63.500019
32.287479 15.692214 63.117897
33.493198 16.320744 64.569595
34.656418 16.933216 65.986404
35.627686 16.98275 65.935966
36.580902 16.970976 65.725182
37.523804 16.908173 65.380066
38.43589 16.659658 64.544785
11.548878 11.430384 58.802429
13.623037 12.590702 61.413067
14.854253 12.803799 61.732548
16.09424 13.043694 62.11969
17.352112 13.325443 62.61171
18.49394 13.470938 62.77317
19.748974 13.789643 63.361298
20.895456 13.974642 63.624054
25.489044 19.526302 77.117783
26.374844 19.576092 77.079895
27.232359 19.582558 76.935287
28.088455 19.587162 76.786133
28.942045 19.587517 76.62645
29.661964 19.320038 75.79924
28.533581 15.086385 65.062271
29.513638 15.076962 64.853516
30.492596 15.063526 64.63459
31.478012 15.064939 64.45285
32.469059 15.0825 64.311813
33.652615 15.696243 65.67643
34.73243 16.079666 66.464905
35.689571 16.086433 66.302322
36.646347 16.093307 66.140099
37.579239 15.98743 65.690765
38.49144 15.731862 64.858185
13.483446 11.322319 61.158035
15.094955 12.011885 62.583275
16.326052 12.255935 62.963379
17.530407 12.482445 63.30455
18.78092 12.792025 63.845253
20.013718 13.101273 64.388466
24.69648 18.718023 77.586075
25.578506 18.762045 77.530472
26.474903 18.834312 77.542969
27.347263 18.87149 77.472031
28.200218 18.87664 77.324463
29.050383 18.876911 77.165192
29.891748 18.859018 76.962051
30.574226 18.490049 75.908813
31.116289 17.743553 73.935715
30.672419 14.41979 65.688072
31.684992 14.518456 65.744881
32.720303 14.699821 66.0047
33.808937 15.083585 66.761803
34.790192 15.167562 66.787682
35.742294 15.156845 66.581696
36.682106 15.089882 66.237038
37.61034 14.946503 65.703011
14.738227 10.459505 61.662983
16.5172 11.426968 63.68029
17.80072 11.777542 64.291092
19.063683 12.126244 64.901215
20.274012 12.424429 65.398422
24.787636 17.95615 77.997406
25.667566 18.001179 77.94133
26.556341 18.065744 77.931076
27.452265 18.149693 77.966606
28.311096 18.171715 77.858566
29.14922 18.154486 77.658997
29.967381 18.092697 77.354858
30.788872 18.030754 77.049713
31.464966 17.609573 75.898582
31.730572 16.067049 72.098579
31.820112 13.798122 66.56575
32.871071 14.051252 66.983406
33.879108 14.20904 67.177353
34.837624 14.219242 67.02182
35.782269 14.176046 66.73909
36.706223 14.028749 66.207161
37.644054 13.91125 65.745064
16.027449 9.667223 62.30336
17.689959 10.542848 64.056702
19.050186 11.03727 64.967422
20.299946 11.401115 65.59082
24.761641 17.008232 77.981911
25.756241 17.243687 78.350365
26.63748 17.300112 78.317711
27.531471 17.385975 78.352127
28.412601 17.455608 78.350655
29.226009 17.392576 78.048889
30.042715 17.329384 77.746124
30.862703 17.265936 77.442154
31.686028 17.20233 77.137161
32.330704 16.65346 75.720764
31.898224 12.928207 67.012054
32.916847 13.094606 67.213051
33.91193 13.211418 67.301468
34.883301 13.263092 67.240639
35.80912 13.137392 66.769859
36.743763 13.021437 66.320412
37.580761 12.351908 64.583122
17.129818 8.63134 62.388416
18.829739 9.6247177 64.345131
20.215042 10.197922 65.398125
24.66991 15.943821 77.727951
