# .PCD v0.7 - Point Cloud Data file format
VERSION 0.7
FIELDS x y z
SIZE 4 4 4
TYPE F F F
COUNT 1 1 1
WIDTH 1611
HEIGHT 1
VIEWPOINT 0 0 0 1 0 0 0
POINTS 1611
DATA ascii
69.200439 29.58004 26.539179
69.871765 29.403023 27.492874
70.546288 29.223127 28.449207
71.222458 29.044836 29.409782
71.901886 28.863634 30.373066
72.584129 28.680859 31.339569
89.71714 24.134212 55.651802
90.464737 23.936161 56.712986
91.215973 23.735857 57.778114
91.969551 23.535782 58.847378
55.194138 33.299835 9.1076965
55.814125 33.133663 9.9902039
56.435829 32.968994 10.876934
57.059784 32.803341 11.766518
57.685902 32.637108 12.659187
58.314293 32.469879 13.554743
58.94458 32.303329 14.454069
59.577057 32.1362 15.356518
60.212376 31.965948 16.260874
60.849503 31.796785 17.169226
61.4883 31.629179 18.081783
67.345154 30.073818 26.431669
68.00753 29.897961 27.376026
68.672417 29.721033 28.32361
69.339401 29.544365 29.274906
70.009232 29.365709 30.22916
70.68148 29.18642 31.186869
71.35553 29.008278 32.148605
72.032158 28.829042 33.113663
72.711899 28.64735 34.081669
86.830841 24.901356 54.213608
87.565201 24.705532 55.25983
88.302094 24.50947 56.310059
89.041016 24.314144 57.364326
59.116863 32.256798 17.146702
59.74704 32.091461 18.051151
60.380356 31.921743 18.956964
61.015457 31.753124 19.866728
61.652668 31.584339 20.779863
62.292221 31.414543 21.696003
66.832466 30.20953 28.200125
67.490021 30.035759 29.142767
68.15049 29.8596 30.08815
68.813324 29.682819 31.036928
69.477928 29.507172 31.989666
70.145203 29.330015 32.945526
70.815193 29.151325 33.904552
71.486954 28.973789 34.867546
72.161621 28.794264 35.833626
83.292938 25.83979 51.779652
84.010162 25.650208 52.807789
84.731186 25.457512 53.839523
85.453751 25.266533 54.87532
86.179703 25.07337 55.91486
86.908623 24.879 56.95826
59.287502 32.21228 19.820761
59.916008 32.046204 20.725965
60.547115 31.877861 21.633556
61.18021 31.709772 22.54468
61.815166 31.542383 23.459507
62.452911 31.372274 24.376646
66.978714 30.170305 30.889687
67.634247 29.99666 31.833452
68.292107 29.822405 32.780563
68.952591 29.64665 33.730774
69.614975 29.471594 34.684742
70.280174 29.29458 35.641727
70.947754 29.116943 36.602146
71.617409 28.939558 37.566231
72.289291 28.761988 38.533882
80.548004 26.56896 50.419216
81.253052 26.380943 51.433182
81.960281 26.193172 52.450996
82.669678 26.005672 53.472656
58.832626 32.332657 21.572023
59.457123 32.167248 22.475246
60.083447 32.002525 23.382095
60.712681 31.834288 24.290865
61.343998 31.665899 25.20298
61.977177 31.498186 26.118759
62.612667 31.329468 27.037554
63.250252 31.160585 27.959705
66.472237 30.305565 32.618412
67.123604 30.132233 33.559834
67.776848 29.959595 34.504959
68.432533 29.785917 35.453285
69.090828 29.610743 36.40472
69.751465 29.434948 37.359543
70.414146 29.259413 38.317986
71.079498 29.082363 39.279617
71.746895 28.905577 40.244884
72.416672 28.728163 41.213596
73.089348 28.548763 42.185474
73.763588 28.370974 43.161312
74.44162 28.188931 44.139927
75.121056 28.008955 45.122608
75.80294 27.828325 46.108814
76.487648 27.646133 47.098427
77.174271 27.464651 48.091835
77.863556 27.282059 49.088753
78.556122 27.096958 50.089039
79.250427 26.91304 51.093224
79.947662 26.727516 52.100948
58.382057 32.453838 23.305691
59.002571 32.289097 24.206923
59.625633 32.12212 25.110592
60.250111 31.957491 26.018526
60.877274 31.790201 26.928783
61.506165 31.62402 27.842812
62.137791 31.455151 28.759237
62.770687 31.289078 29.680033
64.044594 30.949684 31.529301
64.684578 30.780172 32.459129
65.327042 30.609203 33.391922
65.971497 30.438505 34.328243
66.61834 30.266769 35.267708
67.267578 30.094002 36.210342
67.918686 29.921932 37.156658
68.57222 29.748825 38.106167
69.22805 29.575102 39.059013
69.886658 29.39945 40.014919
70.547279 29.224064 40.974415
71.210411 29.047604 41.937218
71.8759 28.87052 42.903442
72.543602 28.693251 43.873215
73.213676 28.515352 44.846432
73.885811 28.337708 45.823284
74.560509 28.158989 46.803535
75.238152 27.978268 47.787086
76.599487 27.618057 49.765263
77.284096 27.436306 50.759598
77.971756 27.25251 51.757362
78.660942 27.070358 52.758999
79.353012 26.88662 53.76416
59.171806 32.243771 26.822212
59.792629 32.078556 27.727648
60.415478 31.913197 28.636343
61.040146 31.74851 29.548595
61.6675 31.581182 30.463259
62.296913 31.413691 31.381227
62.928272 31.246452 32.302635
63.561932 31.078222 33.227097
64.197662 30.909832 34.154888
64.835716 30.740435 35.085766
65.476242 30.569584 36.019638
66.118622 30.399439 36.957134
66.763374 30.22826 37.897774
67.410652 30.05562 38.841492
68.059212 29.885412 39.789249
68.710747 29.712435 40.739796
69.364868 29.537981 41.693493
70.021301 29.362907 42.650558
70.679596 29.188528 43.611271
71.34037 29.013096 44.575294
72.003479 28.837048 45.542728
72.668777 28.660814 46.513664
73.336601 28.483511 47.487968
74.006966 28.305138 48.465672
76.031578 27.768423 51.420074
76.71122 27.588388 52.411938
77.393471 27.407259 53.407303
78.078568 27.224554 54.406174
58.722942 32.363319 28.515575
59.339539 32.200005 29.419434
59.958336 32.035713 30.326223
60.579353 31.870457 31.235983
61.202507 31.704624 32.148865
61.827457 31.53948 33.065262
62.454666 31.37335 33.98468
63.084381 31.205395 34.906883
63.716152 31.037271 35.83239
64.349991 30.868998 36.761227
64.986015 30.700136 37.69326
65.624245 30.530684 38.628525
66.264954 30.3598 39.566841
66.906952 30.191322 40.509121
67.551849 30.020105 41.454166
68.199142 29.847857 42.402416
68.848259 29.676315 43.354248
69.500534 29.501558 44.308899
70.153908 29.329674 45.267559
70.810333 29.155006 46.229191
71.469063 28.979721 47.194202
76.144989 27.737906 54.046059
76.822678 27.557577 55.038849
77.502609 27.377058 56.035225
58.891678 32.31813 31.092844
59.506489 32.154907 31.997749
60.12339 31.991121 32.905727
60.742176 31.82761 33.817047
61.36306 31.663546 34.731464
61.986507 31.497252 35.648506
62.612099 31.330385 36.568714
63.239368 31.164631 37.492531
63.869148 30.997034 38.419178
64.500977 30.829294 39.349133
65.134857 30.66139 40.282387
65.770912 30.492914 41.218849
66.409302 30.323429 42.158463
67.050034 30.152925 43.101234
67.692719 29.982695 44.047451
68.338058 29.81057 44.996708
68.985069 29.639585 45.949589
69.634926 29.466269 46.905499
70.286766 29.293209 47.864899
70.940254 29.1213 48.827908
75.584396 27.887127 55.662479
76.257019 27.708952 56.652771
76.932213 27.529701 57.646545
58.448078 32.436668 32.749428
59.059036 32.274082 33.652283
59.671761 32.112175 34.558575
60.286861 31.948486 35.46756
60.90395 31.784653 36.379753
61.522804 31.621502 37.295376
62.144768 31.454071 38.213135
62.767723 31.290226 39.135105
63.393261 31.124149 40.059784
64.020943 30.957506 40.987633
64.650642 30.790716 41.918755
65.282631 30.622931 42.852974
65.916794 30.454569 43.790409
66.553406 30.284769 44.730911
67.191551 30.116522 45.675056
67.833 29.944271 46.621876
68.475693 29.77442 47.572475
69.12075 29.603558 48.526299
69.768051 29.432096 49.483425
70.417747 29.259609 50.443821
71.069397 29.087397 51.407669
74.364433 28.210617 56.277065
75.029724 28.035181 57.261368
75.698059 27.857344 58.249031
57.404045 32.714973 33.490948
58.009529 32.551949 34.388264
58.61631 32.391613 35.289581
59.225121 32.23074 36.193913
59.836273 32.068111 37.100945
60.449604 31.904505 38.010937
61.06448 31.742407 38.924538
61.681862 31.578115 39.840813
62.30101 31.414511 40.760498
62.922359 31.249929 41.683186
63.546295 31.083128 42.608662
64.171646 30.918259 43.537819
64.799736 30.750738 44.46973
65.429741 30.583475 45.404991
66.062157 30.414793 46.343315
66.696617 30.245964 47.284943
67.332733 30.078253 48.230087
67.971291 29.909105 49.178322
68.61219 29.738958 50.12978
69.255455 29.567787 51.084465
69.900803 29.396452 52.042519
70.54808 29.225388 53.003983
71.198219 29.052 53.968609
73.161179 28.531246 56.882996
73.820305 28.355858 57.861221
74.481392 28.180748 58.842915
75.145317 28.003689 59.828014
57.574657 32.66967 36.011333
58.177765 32.509552 36.910465
58.78318 32.347687 37.812286
59.390144 32.187302 38.71767
59.999645 32.024345 39.625576
60.61058 31.863289 40.537136
61.223667 31.701286 41.451656
61.839478 31.536268 42.368713
62.4566 31.373569 43.28949
63.076252 31.208675 44.213039
63.697777 31.04405 45.139877
64.321655 30.878036 46.069721
64.947906 30.710613 47.002594
65.575546 30.545145 47.939064
66.205704 30.377846 48.878525
66.838013 30.20997 49.821194
67.472626 30.041103 50.767044
68.109154 29.872496 51.716244
68.748138 29.702461 52.668613
69.389191 29.532272 53.62431
70.032303 29.361917 54.58334
70.677933 29.190121 55.545612
71.325653 29.01816 56.511253
71.975624 28.845596 57.480247
72.627846 28.67244 58.452599
73.282173 28.499119 59.428352
73.938782 28.325188 60.407505
74.598183 28.149336 61.390038
57.744274 32.623871 38.514084
58.34539 32.465038 39.414478
58.9487 32.304867 40.317665
59.553917 32.144562 41.223957
60.161366 31.982918 42.133102
60.770744 31.821131 43.04538
61.382278 31.658401 43.960648
61.995766 31.495525 44.879074
62.611435 31.331688 45.800518
63.229183 31.167303 46.725086
63.848785 31.003181 47.652908
64.47036 30.838926 48.583935
65.094406 30.672869 49.517929
65.720581 30.506243 50.455097
66.348488 30.340309 51.395615
66.978935 30.172541 52.339184
67.611404 30.004631 53.28603
68.246033 29.836145 54.236107
68.88298 29.666656 55.189404
69.521965 29.497011 56.146011
70.163017 29.327209 57.105942
70.806404 29.156397 58.069145
71.452171 28.984562 59.035645
72.099869 28.813 60.005531
72.749794 28.640837 60.97876
73.40213 28.467649 61.955353
57.314743 32.739021 40.101871
57.912449 32.579594 40.999912
58.511765 32.42123 41.901295
59.113358 32.261135 42.805397
59.716858 32.100918 43.712605
60.322472 31.939758 44.622765
60.930008 31.778463 45.536034
61.539577 31.616632 46.45237
62.151413 31.453434 47.371628
62.764736 31.291748 48.294315
63.380695 31.127453 49.21978
63.998383 30.96384 50.148544
64.618027 30.800093 51.080486
65.240128 30.634556 52.015419
65.864204 30.468866 52.953564
66.490402 30.302624 53.894897
67.118729 30.135803 54.83942
67.749466 29.967588 55.787094
68.381805 29.800474 56.738125
69.016579 29.631954 57.692348
69.653519 29.462851 58.649822
70.292648 29.293173 59.610588
70.933807 29.123341 60.574654
71.577484 28.952055 61.542007
72.223221 28.78063 62.512711
57.483719 32.693779 42.569435
58.079468 32.535614 43.468647
58.67728 32.37653 44.37075
59.276985 32.217316 45.275928
59.878574 32.057976 46.184177
60.482368 31.897297 47.095303
61.088062 31.736494 48.009525
61.695892 31.574745 48.926743
62.305531 31.413265 49.847137
62.917088 31.251661 50.770657
63.530918 31.088701 51.697163
64.146812 30.925194 52.626774
64.764771 30.761129 53.559509
65.385071 30.595684 54.495316
66.007332 30.430094 55.434322
66.631187 30.265615 56.376629
67.257668 30.098911 57.322006
67.886147 29.932053 58.270611
68.516617 29.765057 59.222454
69.149368 29.597071 60.177513
69.784271 29.428511 61.135826
70.421356 29.259375 62.09742
71.0606 29.089664 63.062286
57.059669 32.805237 44.12278
57.651535 32.648838 45.020153
60.03928 32.014923 48.638687
60.641155 31.855129 49.550804
61.244923 31.695213 50.466003
61.850468 31.53557 51.384323
62.458466 31.373787 52.305508
63.068493 31.211454 53.229771
63.680683 31.048168 54.157085
64.2948 30.884748 55.087547
64.910744 30.721603 56.021198
65.528374 30.559147 56.958057
66.148819 30.393665 57.897888
66.771118 30.228453 58.840946
67.3955 30.062693 59.787178
68.022003 29.89636 60.736618
68.650475 29.729889 61.689266
69.281227 29.562433 62.645142
69.914108 29.394415 63.604256
56.052902 33.07362 44.768692
56.639359 32.917923 45.660988
57.227909 32.760925 46.556057
59.600479 32.132153 50.166531
60.198376 31.974169 51.076637
60.798435 31.814859 51.989632
61.400803 31.653816 52.905518
62.004959 31.49305 53.824539
62.611012 31.332144 54.746643
63.218967 31.171116 55.671852
63.828819 31.00996 56.600151
64.441055 30.847048 57.531464
65.055214 30.68399 58.465908
65.671432 30.520393 59.403484
66.289581 30.356663 60.344204
66.909935 30.191969 61.288071
67.532372 30.026718 62.235104
68.156898 29.860912 63.185329
68.783401 29.694967 64.138756
55.059528 33.33807 45.405991
55.640575 33.183449 46.293343
56.223347 33.029091 47.183708
59.760773 32.089218 52.586712
60.357193 31.930504 53.497543
60.955475 31.771658 54.411407
61.555836 31.6119 55.328262
62.157848 31.45282 56.248222
62.761848 31.293211 57.171215
63.368179 31.131863 58.097183
63.976288 30.970795 59.026264
64.586533 30.808784 59.958405
65.198807 30.646233 60.893654
65.813126 30.483137 61.832016
66.429359 30.31992 62.773506
67.047783 30.155733 63.718147
67.668549 29.99017 64.665955
54.654922 33.445477 46.917385
55.232426 33.291794 47.802773
59.920078 32.046169 54.990425
60.514324 31.889517 55.902225
61.110508 31.732351 56.816994
61.709164 31.57267 57.734623
62.309582 31.413269 58.655327
62.91198 31.253338 59.579063
63.516357 31.092888 60.505844
64.122742 30.9319 61.435688
64.731003 30.77079 62.368614
65.341408 30.60873 63.304626
65.953964 30.44574 64.243752
66.568817 30.28137 65.186028
67.185204 30.118107 66.131409
67.80352 29.954702 67.079926
68.424156 29.789934 68.031647
69.046875 29.624609 68.986542
69.671257 29.459984 69.944565
53.68235 33.702942 47.533089
54.254379 33.551441 48.413799
54.828083 33.400223 49.297455
59.487041 32.161865 56.46846
60.077705 32.005783 57.37804
60.670486 31.848415 58.290539
61.265312 31.690128 59.205997
61.861984 31.531713 60.124474
62.460392 31.373589 61.045975
63.06086 31.214546 61.970482
63.663528 31.054173 62.898014
64.267952 30.894077 63.828602
64.874855 30.731834 64.762283
65.483269 30.570684 65.699036
66.093834 30.408588 66.638885
66.706284 30.24637 67.581841
67.320763 30.083605 68.527908
67.937553 29.919481 69.477173
68.556122 29.75564 70.42955
69.177177 29.590004 71.385193
69.799881 29.425064 72.343933
53.289169 33.806957 49.016788
53.857475 33.657883 49.895752
54.427944 33.506428 50.777241
59.058422 32.276016 57.931721
59.645638 32.120117 58.839088
60.234566 31.964497 59.74942
60.825493 31.807987 60.662693
61.418449 31.650564 61.578926
62.01334 31.492622 62.498142
62.610165 31.334185 63.420357
63.208946 31.175213 64.345589
63.810043 31.014517 65.273888
64.412643 30.85491 66.205193
65.017593 30.693556 67.139618
65.623795 30.534111 68.076996
66.232864 30.371292 69.017609
66.843185 30.210377 69.961189
67.455902 30.047709 70.907959
68.070786 29.884098 71.857903
68.687721 29.719933 72.811005
69.306435 29.556053 73.767212
52.899685 33.910713 50.486122
53.464741 33.761768 51.362999
54.031723 33.611603 52.24255
58.052223 32.543861 58.478203
58.633869 32.389809 59.380497
59.217388 32.235256 60.285694
59.802879 32.079819 61.193794
60.390366 31.923491 62.104828
60.979862 31.766253 63.018822
61.570972 31.609682 63.935791
63.356262 31.135347 66.704628
63.955097 30.976734 67.633575
64.555763 30.818008 68.565544
65.159119 30.656342 69.500702
65.763359 30.49778 70.43869
66.370445 30.335869 71.379951
66.979279 30.174234 72.324257
67.590118 30.012066 73.271675
68.20298 29.849354 74.222229
68.817871 29.686115 75.175926
51.953842 34.16217 51.069172
52.513916 34.013836 51.941231
53.075619 33.86578 52.816116
53.639442 33.715382 53.693562
54.20491 33.56525 54.57386
54.772171 33.414658 55.456959
55.341232 33.263577 56.342857
55.911945 33.112778 57.231625
56.484795 32.959984 58.123127
57.059151 32.808216 59.017559
57.635498 32.655205 59.914803
58.213879 32.500931 60.814911
58.793842 32.347321 61.717934
59.375957 32.192051 62.623848
59.959557 32.037842 63.532677
60.545227 31.882351 64.444435
62.907021 31.254972 68.121056
63.502129 31.097345 69.047653
64.099167 30.939207 69.977264
64.698387 30.779758 70.909958
65.299316 30.620586 71.845627
65.902222 30.460894 72.784348
66.507332 30.299881 73.726219
67.1147 30.137522 74.671295
67.723022 29.977879 75.619087
51.574921 34.264523 52.51228
52.131882 34.115952 53.382252
52.690468 33.967659 54.255039
53.250809 33.818897 55.130569
53.81292 33.669662 56.008865
54.376728 33.520344 56.889954
54.942543 33.369408 57.773754
55.509842 33.219517 58.660439
56.079018 33.068768 59.549911
56.650246 32.916397 60.442169
57.223122 32.764309 61.33728
57.79792 32.611351 62.23526
58.374096 32.459824 63.136101
58.95303 32.303963 64.039833
62.462254 31.3734 69.523407
63.053791 31.216352 70.447678
63.647236 31.058805 71.374931
64.242378 30.901541 72.30513
64.840034 30.74177 73.238533
65.438934 30.583876 74.174728
66.040131 30.424267 75.114105
66.643799 30.262527 76.056747
51.20002 34.363686 53.941269
51.753719 34.215981 54.809303
52.30896 34.068924 55.680145
52.865932 33.921413 56.553711
53.424858 33.77232 57.429947
53.985264 33.624249 58.309017
54.547798 33.473839 59.190773
55.111572 33.325588 60.075401
55.677589 33.174606 60.962749
56.245316 33.023525 61.852913
62.609779 31.334583 71.833771
63.199234 31.179182 72.758553
63.79126 31.020922 73.686546
64.384979 30.86293 74.617462
64.980507 30.704826 75.551361
65.577843 30.546612 76.48822
62.756104 31.296806 74.128632
55.026466 33.308132 11.105412
55.582405 33.160393 9.9884109
56.058781 33.034218 11.763943
56.615501 32.886276 10.649612
57.174137 32.738323 9.532074
56.532475 32.909233 13.52902
57.088249 32.761551 12.420784
57.645744 32.613411 11.309109
58.204967 32.464813 10.193993
57.557976 32.637142 14.181076
58.114517 32.48925 13.075457
58.672955 32.341339 11.966663
59.232765 32.192101 10.85397
58.580482 32.365833 14.831219
59.137783 32.217743 13.728224
59.696808 32.069191 12.621819
58.488834 32.390095 17.669935
59.043655 32.243153 16.576485
59.600006 32.095314 15.47946
60.158234 31.947464 14.379297
60.717838 31.798277 13.275299
59.504074 32.121208 18.311348
60.059464 31.973619 17.220264
60.616726 31.826033 16.126043
61.175697 31.677982 15.028471
61.73605 31.528603 13.927094
58.308357 32.438847 23.271597
58.858109 32.293724 22.196611
59.409 32.146858 21.117817
59.961754 31.999977 20.035906
60.516026 31.852217 18.950497
61.072323 31.704868 17.862171
61.630318 31.557087 16.770529
62.189865 31.408403 15.67532
58.766319 32.318024 24.96879
59.314781 32.172279 23.899199
59.864918 32.026096 22.826347
60.416553 31.879032 21.750059
60.970375 31.732841 20.671061
61.525543 31.585314 19.588392
58.675335 32.342102 27.716377
59.221401 32.197479 26.65584
59.768948 32.051991 25.591932
60.318306 31.906487 24.52499
60.869007 31.759682 23.454458
61.4217 31.613295 22.381042
61.975754 31.46559 21.303986
58.58551 32.366837 30.439976
59.128845 32.222454 29.388065
59.67382 32.077641 28.332985
60.220436 31.932398 27.274734
60.768703 31.786713 26.213287
61.318787 31.641022 25.148806
61.870365 31.494459 24.08094
68.049911 29.852928 12.117786
68.622063 29.700897 11.010101
69.196098 29.548853 9.8992462
69.771912 29.396341 8.7849693
70.349373 29.242895 7.6669922
70.928635 29.08898 6.5455551
57.419502 32.67704 35.216602
57.9571 32.534187 34.179562
58.496128 32.390488 33.139297
59.037113 32.247211 32.096191
59.579712 32.103508 31.049973
60.123596 31.958508 30.000334
60.669289 31.813507 28.947678
61.216625 31.668081 27.891865
61.765602 31.522198 26.832863
62.316399 31.376324 25.770838
68.485115 29.738155 13.872183
69.056213 29.586409 12.770519
69.629066 29.434191 11.66547
70.203819 29.281956 10.557247
70.780212 29.128801 9.4453735
71.358383 28.975174 8.3300629
71.938469 28.821524 7.2115555
72.520233 28.666948 6.089325
57.335869 32.699169 37.875282
57.870987 32.556976 36.846725
58.4077 32.41436 35.815113
58.946007 32.271324 34.78043
59.486088 32.128284 33.74279
60.027279 31.983536 32.701664
60.570915 31.840496 31.658096
61.115681 31.695745 30.611008
61.662079 31.550562 29.560776
62.209965 31.404503 28.507229
68.349144 29.774181 16.708046
68.917458 29.623165 15.615675
69.487648 29.472145 14.520185
70.059578 29.32066 13.421349
70.633018 29.167805 12.31868
71.208344 29.014936 11.212845
71.785561 28.862043 10.103836
72.364441 28.708227 8.9911728
72.945114 28.553938 7.8750725
57.253136 32.721523 40.510944
57.785797 32.579983 39.490768
58.320042 32.438023 38.467567
58.855865 32.295647 37.441341
59.393456 32.153275 36.412178
59.932297 32.009617 35.379723
60.473076 31.866394 34.344448
61.015465 31.722748 33.306087
61.55899 31.577379 32.264233
62.104778 31.433298 31.219803
62.651886 31.287926 30.17197
67.650673 29.960152 20.598585
68.214783 29.811222 19.519089
68.780334 29.660942 18.435919
69.347496 29.509764 17.349232
69.916519 29.358568 16.25943
70.487274 29.206911 15.166304
50.926895 34.401062 55.038731
51.43911 34.265411 54.061623
51.952614 34.128963 53.081638
52.467796 33.992523 52.098869
52.983894 33.854462 51.113091
53.502266 33.717648 50.12466
54.021759 33.579605 49.133244
54.542763 33.441158 48.138947
55.065483 33.302731 47.141804
55.589539 33.163479 46.141682
56.115128 33.023819 45.138634
56.642265 32.883755 44.132637
57.170944 32.743271 43.123695
57.701355 32.602795 42.111866
58.232979 32.461063 41.096882
58.766514 32.319759 40.07909
59.301624 32.17804 39.0583
59.838146 32.035473 38.034393
60.376259 31.892494 37.007446
60.91597 31.749084 35.977455
61.457127 31.604824 34.944275
62.00021 31.460985 33.908272
62.544601 31.315865 32.868916
67.519836 29.994818 23.374947
68.08123 29.846596 22.304438
68.643936 29.696606 21.230139
69.208473 29.546598 20.152761
69.774857 29.396584 19.072296
70.342834 29.245665 17.988365
51.383419 34.280571 56.564503
51.894661 34.144726 55.592293
52.407372 34.008484 54.617283
52.92157 33.871853 53.63945
53.437256 33.734825 52.658791
53.95462 33.597805 51.675335
54.473301 33.459984 50.68898
54.993671 33.322174 49.69981
55.515377 33.183548 48.70771
56.038593 33.044514 47.712719
56.563526 32.905499 46.714886
57.089638 32.765244 45.713993
57.617462 32.624989 44.710239
58.147011 32.484745 43.703632
58.677769 32.343246 42.693897
59.210258 32.201756 41.681274
59.744488 32.060268 40.665768
60.280125 31.91794 39.647163
60.817505 31.77562 38.625664
61.356308 31.632446 37.601036
61.896713 31.488861 36.57338
62.438721 31.344841 35.54266
62.982338 31.200392 34.508881
63.52787 31.056374 33.47229
64.074432 30.910202 32.432079
66.833664 30.177988 27.185804
67.390289 30.029608 26.126856
67.948868 29.881664 25.065056
68.509125 29.733267 24.000059
69.070938 29.58399 22.931675
69.63459 29.434708 21.860241
70.19957 29.283628 20.784998
70.766632 29.133429 19.707052
52.347656 34.024719 57.114388
52.859772 33.889091 56.144337
53.373177 33.752674 55.171459
53.887875 33.615456 54.195732
54.404613 33.479057 53.217308
57.534637 32.647823 47.286427
58.061607 32.507801 46.287838
58.589954 32.366951 45.286247
59.120354 32.22694 44.281956
59.651798 32.085258 43.274487
60.184978 31.94359 42.26413
60.719727 31.801497 41.250801
61.256054 31.658995 40.234489
61.794113 31.516489 39.21529
62.333603 31.373133 38.19297
62.874695 31.229361 37.167625
63.417385 31.085157 36.139244
63.961842 30.94096 35.107925
64.507759 30.795898 34.073425
65.055305 30.650412 33.035854
66.708038 30.212202 29.904797
67.262024 30.064529 28.854616
67.817802 29.916859 27.801443
68.375252 29.768736 26.745092
68.934509 29.620607 25.68574
69.495438 29.472042 24.623201
70.057938 29.322578 23.557293
70.622139 29.172668 22.488153
71.188042 29.022301 21.415791
52.797932 33.904984 58.627964
53.309448 33.769962 57.662811
53.82206 33.633762 56.694839
54.336327 33.497566 55.724113
59.030552 32.25024 46.85994
59.560074 32.110458 45.860798
60.090656 31.969015 44.858513
60.623119 31.827999 43.853443
61.156975 31.686144 42.845348
61.692245 31.543453 41.834209
62.229404 31.401184 40.820271
62.767986 31.258074 39.803257
63.308163 31.114548 38.783237
63.849934 30.970589 37.760201
64.393303 30.826208 36.734146
64.938431 30.681826 35.705162
65.485313 30.537457 34.673256
66.033394 30.391352 33.637917
66.583252 30.245251 32.599617
67.13475 30.098709 31.558224
67.687889 29.95174 30.513718
68.242691 29.804327 29.466091
68.799149 29.656467 28.415319
69.357277 29.508167 27.361403
69.917206 29.359865 26.304478
70.478683 29.210676 25.244226
71.041985 29.061476 24.180939
71.606857 28.911377 23.114279
53.756428 33.6511 59.172791
54.268436 33.515511 58.209705
54.781723 33.37912 57.243839
59.468811 32.134602 48.424778
59.997147 31.994223 47.430603
60.527176 31.853842 46.433601
61.058437 31.712227 45.433548
61.591564 31.571026 44.430721
62.126102 31.428993 43.424873
62.662056 31.286121 42.415989
63.199734 31.143253 41.404224
63.739143 31.000389 40.38958
64.279991 30.85668 39.371853
64.822578 30.712971 38.351231
65.366631 30.568415 37.327488
65.912285 30.423428 36.300713
66.459557 30.278013 35.270905
67.008591 30.132597 34.238148
67.55912 29.986317 33.202213
68.11129 29.839602 32.163185
68.665108 29.692446 31.121059
69.220695 29.545286 30.075968
69.777832 29.397259 29.027611
70.336624 29.248779 27.97611
70.897095 29.099859 26.921461
54.712143 33.397514 59.716114
55.224815 33.261745 58.755119
55.73877 33.125175 57.791351
59.37849 32.158962 50.966927
59.904434 32.019215 49.980694
60.4319 31.879057 48.991596
60.960743 31.738075 47.999554
61.491447 31.59753 47.004757
62.023842 31.45698 46.007137
62.557335 31.314772 45.00639
63.092541 31.172558 44.002777
63.629311 31.029936 42.996239
64.167664 30.886889 41.986736
64.707588 30.743423 40.974274
65.249252 30.599968 39.958931
65.792358 30.455648 38.940498
66.337212 30.31135 37.91917
66.8834 30.165756 36.894604
67.43148 30.020596 35.867226
67.981171 29.875006 34.836823
68.532242 29.728107 33.803101
69.085075 29.581219 32.766441
69.639679 29.434328 31.726822
70.195694 29.286119 30.683832
70.753487 29.137907 29.637859
55.153923 33.281387 61.214191
55.66544 33.14502 60.25798
56.178589 33.008659 59.299053
56.693222 32.871922 58.337372
59.288773 32.182697 53.487415
59.812668 32.044407 52.509113
60.337433 31.904057 51.527794
60.864357 31.764965 50.543831
61.392338 31.624216 49.556854
61.922153 31.483894 48.567135
62.453217 31.342333 47.574398
62.986118 31.201193 46.578915
63.520428 31.059223 45.580456
64.056435 30.917257 44.57917
64.593872 30.774456 43.574871
65.132744 30.630812 42.567539
65.67334 30.487175 41.557331
66.21579 30.343962 40.544357
66.75956 30.199482 39.528217
67.304939 30.054573 38.509079
67.851799 29.908806 37.486816
68.400528 29.763464 36.461758
68.95076 29.617268 35.433556
69.502739 29.471071 34.402428
70.056114 29.323565 33.367989
70.611374 29.176498 32.330734
71.168053 29.028111 31.290119
56.103615 33.028931 61.752502
56.615971 32.892796 60.798367
57.129959 32.756672 59.841515
57.645245 32.619759 58.881927
59.199982 32.20665 55.98661
59.721367 32.068562 55.015984
60.243931 31.929258 54.042503
60.768478 31.790787 53.06633
61.294224 31.651094 52.087261
61.821484 31.510992 51.105362
62.350281 31.370495 50.120613
62.880604 31.22958 49.133018
63.412468 31.088259 48.142544
63.946026 30.946945 47.149261
64.480995 30.804802 46.153019
65.01738 30.661821 45.153793
65.555756 30.519695 44.151886
66.095284 30.375877 43.146809
66.636528 30.232059 42.13887
67.179367 30.087828 41.127964
67.723801 29.943163 40.11409
68.269958 29.798512 39.097343
68.817604 29.653 38.077488
69.366867 29.507055 37.054623
69.917747 29.360687 36.028748
70.470261 29.213875 34.999817
71.024529 29.067078 33.967979
71.58033 28.919401 32.932945
72.137772 28.771276 31.894835
56.539368 32.913498 63.238758
57.050922 32.777573 62.289375
57.563938 32.641266 61.337292
58.078579 32.504967 60.3825
58.594681 32.368282 59.425003
59.111931 32.230389 58.464725
59.630993 32.092926 57.50174
60.151379 31.954653 56.535973
60.67326 31.815989 55.567429
61.196632 31.676918 54.596111
61.721676 31.537868 53.622025
62.248074 31.398003 52.6451
62.77599 31.257723 51.665352
63.305435 31.117046 50.68277
63.836414 30.975962 49.697342
64.368935 30.834469 48.709053
64.903 30.692562 47.717896
65.438759 30.550665 46.723923
65.975937 30.407934 45.726994
66.514824 30.265217 44.727222
67.055008 30.121223 43.72438
67.597031 29.977657 42.718777
68.140396 29.832825 41.710041
68.685608 29.688416 40.698528
69.232292 29.543165 39.683952
69.780708 29.397917 38.6665
70.330498 29.251371 37.645832
70.882034 29.104824 36.622261
71.435196 28.957838 35.595657
71.990219 28.811304 34.566273
72.546555 28.663017 33.533455
57.483467 32.662983 63.772144
57.995846 32.527298 62.824799
58.509506 32.390808 61.874763
59.024628 32.253937 60.922024
59.541378 32.117077 59.966587
60.059444 31.979427 59.008404
60.578987 31.841375 58.047485
61.100029 31.702942 57.083813
61.622555 31.564096 56.117374
62.146732 31.425272 55.148201
62.672264 31.285633 54.176208
63.199459 31.146009 53.201462
63.728027 31.005566 52.223854
64.257973 30.864302 51.243382
64.789742 30.723463 50.26017
65.322906 30.581797 49.274063
65.85762 30.43972 48.285095
66.393883 30.29723 47.293255
66.931717 30.154331 46.298523
67.471107 30.011009 45.300896
68.012077 29.867271 44.300354
68.554749 29.723541 43.296982
69.098877 29.57896 42.290588
69.644608 29.43396 41.281242
70.19194 29.28853 40.268944
70.740997 29.143108 39.253757
71.29155 28.996826 38.235497
71.843727 28.850113 37.214233
72.397537 28.702967 36.189941
58.425205 32.413555 64.304085
58.938217 32.277691 63.358772
59.452518 32.141041 62.410782
59.968124 32.003582 61.460091
60.485516 31.866558 60.506706
61.004223 31.728731 59.550594
61.524422 31.590519 58.591747
62.046097 31.451904 57.630165
62.569416 31.313303 56.665855
63.094086 31.173897 55.698753
63.620262 31.034088 54.728878
64.148094 30.894289 53.756248
64.677307 30.753679 52.780785
65.208046 30.612661 51.802505
65.740311 30.471233 50.8214
66.274117 30.329405 49.83746
66.809479 30.18716 48.85067
67.346382 30.044497 47.861008
67.884979 29.901846 46.868549
68.424889 29.757938 45.873062
68.966614 29.61445 44.874817
69.509804 29.470127 43.873592
70.054695 29.325806 42.869522
70.600945 29.180202 41.862339
71.148918 29.034609 40.852291
71.698608 28.889021 39.83939
72.249908 28.743002 38.823509
59.364395 32.164791 64.834602
59.877728 32.02795 63.891319
60.392826 31.891527 62.945358
60.909229 31.754314 61.996712
61.427105 31.616716 61.045368
61.946457 31.478724 60.091312
62.467285 31.340336 59.134537
62.989746 31.20196 58.17506
63.513557 31.062788 57.212807
64.038864 30.923206 56.247807
64.565681 30.783226 55.280041
65.094147 30.643267 54.309532
65.624001 30.502485 53.336189
66.155373 30.361296 52.36005
66.688278 30.219706 51.381092
67.222717 30.0777 50.399315
67.758713 29.935286 49.414684
68.296257 29.792456 48.427208
68.835236 29.648785 47.436798
69.376152 29.505976 46.443718
69.918396 29.36191 45.447609
70.462334 29.217844 44.448685
71.007744 29.072931 43.446758
71.554749 28.927593 42.441914
72.103348 28.78183 41.434128
60.300751 31.915888 65.363708
60.814873 31.779276 64.422432
61.330612 31.6427 63.478485
61.847649 31.505316 62.531876
62.366158 31.367546 61.582577
62.886143 31.229385 60.630573
63.407745 31.091238 59.67588
63.930695 30.952291 58.718452
64.455139 30.812943 57.758286
64.981079 30.673195 56.795376
65.50853 30.533051 55.829704
66.037621 30.392918 54.861301
66.568237 30.252392 53.890125
67.100243 30.111038 52.916115
67.633774 29.969278 51.939304
68.168724 29.826679 50.959618
68.705345 29.684103 49.977158
69.243645 29.541525 48.991909
69.783379 29.398121 48.00375
70.324677 29.254295 47.012722
70.867661 29.110483 46.018898
71.412109 28.96583 45.022102
71.958153 28.820747 44.0224
72.505882 28.675669 43.019878
73.055115 28.529743 42.014332
61.749664 31.531687 64.95211
62.266018 31.394939 64.010193
62.783535 31.256979 63.065613
63.302818 31.119455 62.118347
63.823425 30.981125 61.168392
64.345512 30.842403 60.21574
64.869095 30.703285 59.260372
65.394302 30.564192 58.302299
65.920868 30.424282 57.34148
66.448944 30.28397 56.377903
66.978661 30.143675 55.411606
67.509766 30.002562 54.442505
68.042397 29.86104 53.470615
68.576561 29.719112 52.495937
69.112259 29.576773 51.518452
69.649391 29.433605 50.538086
70.188194 29.290447 49.554935
70.728668 29.147303 48.569008
71.270592 29.003313 47.58017
71.814194 28.859327 46.588528
72.359268 28.714508 45.593941
72.90593 28.569262 44.596458
73.454185 28.42359 43.596062
74.004143 28.277927 42.592834
62.681644 31.283941 65.480392
63.198624 31.147024 64.540466
63.717056 31.009726 63.5979
64.236809 30.871618 62.652664
64.758049 30.733128 61.70475
65.280762 30.59424 60.754143
65.804962 30.454962 59.800835
66.330788 30.315699 58.844826
66.857849 30.175211 57.886051
67.386673 30.035149 56.924587
67.917007 29.894693 55.960377
68.448738 29.75341 54.993382
68.981987 29.611731 54.023613
69.516777 29.469637 53.051048
70.052979 29.32671 52.075649
70.590965 29.184221 51.09753
72.214012 28.753441 48.146118
72.758118 28.608866 47.156597
73.303917 28.46431 46.164272
73.851089 28.318468 45.168922
74.399971 28.172638 44.170742
63.611431 31.037678 66.007233
64.129021 30.9006 65.069321
64.647926 30.762722 64.128769
65.168297 30.624453 63.185555
65.690155 30.4858 62.239666
66.213493 30.346754 61.291096
66.738434 30.20772 60.339844
67.264748 30.067883 59.38588
67.792549 29.927641 58.429199
68.321869 29.787008 57.469784
68.852814 29.646379 56.507664
69.385155 29.504936 55.542767
69.919022 29.363092 54.575096
70.454308 29.220417 53.604614
70.991249 29.077749 52.631382
73.154732 28.503826 48.710449
73.699463 28.359093 47.723099
74.245766 28.21394 46.732891
74.793747 28.068798 45.739883
62.48082 31.338415 70.25016
62.993095 31.202299 69.324699
63.506813 31.065805 68.396637
64.021973 30.928925 67.465973
64.538719 30.792068 66.532669
65.056786 30.654427 65.596756
65.576302 30.516384 64.658203
66.09742 30.378361 63.717007
66.619766 30.239141 62.77314
67.143829 30.100336 61.826611
67.669258 29.960735 60.877392
68.196182 29.820726 59.925476
68.724602 29.680325 58.970856
69.254524 29.539528 58.013515
69.786087 29.398748 57.053459
70.319038 29.257141 56.090652
70.853516 29.115131 55.125088
74.092972 28.255325 49.273296
74.638214 28.110003 48.288048
75.18512 27.964691 47.300018
75.733711 27.819389 46.3092
62.381565 31.365108 72.605667
62.891747 31.229998 71.687256
63.403061 31.0937 70.76635
63.916092 30.95783 69.842804
64.430283 30.820774 68.916733
64.946182 30.684134 67.988014
65.463402 30.546711 67.056709
65.982071 30.408905 66.122787
66.502197 30.270702 65.186234
67.023926 30.132523 64.247032
67.546997 29.993544 63.305187
68.071548 29.854174 62.36068
68.59758 29.714407 61.413498
69.125107 29.574244 60.463623
69.654251 29.434099 59.511066
70.184784 29.29314 58.55579
70.71682 29.151772 57.597794
71.250381 29.010012 56.637062
75.028442 28.006641 49.83448
75.574486 27.862026 48.851513
76.121902 27.716122 47.865597
62.283131 31.39159 74.941887
62.790939 31.256664 74.030518
63.300159 31.121365 73.116623
63.811077 30.986496 72.200096
64.322861 30.84963 71.281174
64.836494 30.713606 70.359573
65.351425 30.576792 69.435425
65.86779 30.439585 68.508698
66.385483 30.301596 67.579376
66.904884 30.164036 66.647415
67.425621 30.025681 65.712852
67.947937 29.887337 64.77565
68.471611 29.748198 63.835808
68.996773 29.608673 62.893318
69.523521 29.46916 61.948162
70.051651 29.328836 61.000328
70.581276 29.188114 60.049805
71.112411 29.047003 59.096581
71.645058 28.905479 58.140644
75.961563 27.759514 50.394238
76.508095 27.6143 49.413372
77.05629 27.469097 48.429749
63.198238 31.149206 75.447632
63.706509 31.013725 74.538223
64.216324 30.878263 73.626236
64.727699 30.742832 72.71167
65.240364 30.606619 71.794594
65.754456 30.470026 70.874962
66.269981 30.333054 69.952766
66.786957 30.195698 69.027985
67.305496 30.058361 68.100594
67.825241 29.919819 67.170647
68.869492 29.642811 65.302849
69.393883 29.503929 64.365005
69.919518 29.363821 63.424522
70.446869 29.224155 62.481384
70.975594 29.083677 61.535576
71.50592 28.943214 60.587105
72.037643 28.801939 59.635937
72.570885 28.660265 58.682053
76.346474 27.657566 51.928337
76.892113 27.513042 50.952477
77.43924 27.367683 49.973759
64.110664 30.906658 75.952156
64.619797 30.77182 75.04454
65.130081 30.635801 74.134499
65.642052 30.500214 73.22184
66.155296 30.36384 72.306694
66.669991 30.227097 71.388992
67.186111 30.089962 70.468735
67.703918 29.953262 69.545853
68.222809 29.814953 68.620468
70.313568 29.259895 64.892784
70.839905 29.120047 63.954308
71.367836 28.980225 63.013184
71.897156 28.839588 62.069405
72.427963 28.698559 61.122948
72.960281 28.557121 60.173817
73.494209 28.41571 59.222008
74.029549 28.273476 58.267475
74.566322 28.130413 57.310211
75.104721 27.987362 56.350231
75.644745 27.84433 55.38755
76.186211 27.700466 54.422092
76.72924 27.556192 53.453869
77.273819 27.411501 52.482868
77.819962 27.266396 51.509083
78.367752 27.121304 50.532547
65.020828 30.665148 76.455307
65.530685 30.530554 75.549522
66.041565 30.394382 74.641388
66.553986 30.258234 73.730682
67.067947 30.12211 72.817406
67.583229 29.985207 71.901634
68.099937 29.847921 70.983307
68.618088 29.710249 70.062424
69.137688 29.572195 69.138962
71.757721 28.876511 64.482681
72.28624 28.736534 63.543556
72.816139 28.595743 62.60178
73.347534 28.454552 61.657356
73.88044 28.312963 60.710251
74.414948 28.171398 59.760479
74.950874 28.029005 58.808006
75.488228 27.885784 57.852798
76.027306 27.743013 56.894917
76.567734 27.598972 55.93425
77.109787 27.454956 54.970879
77.653481 27.310947 54.004787
78.19873 27.166538 53.035931
78.745369 27.020842 52.064224
79.293739 26.875607 51.089817
65.928749 30.424675 76.957077
66.438797 30.288719 76.053329
66.950516 30.153196 75.146988
67.463524 30.016891 74.238174
67.977951 29.880211 73.326843
68.493935 29.743557 72.412949
69.011223 29.60611 71.496544
69.529846 29.467875 70.577621
73.732666 28.352547 63.132744
74.264549 28.210789 62.190323
74.798126 28.06946 61.245255
75.333214 27.927742 60.297508
75.86972 27.785202 59.347069
76.407745 27.642248 58.393944
76.947311 27.498894 57.438099
77.488403 27.355131 56.479538
78.030952 27.210529 55.518215
78.575218 27.06637 54.554207
79.121033 26.921804 53.58746
79.668335 26.776396 52.617905
80.217201 26.630568 51.645569
67.34491 30.048721 76.555664
67.857086 29.912643 75.651253
68.370667 29.77618 74.744339
68.885796 29.639753 73.834869
69.402237 29.502541 72.92292
79.494469 26.822456 55.102146
80.588722 26.532173 53.170036
81.138161 26.386196 52.199814
68.761276 29.67272 76.154205
69.275551 29.536514 75.249123
69.791245 29.399933 74.341545
81.506607 26.288622 53.720665
82.056618 26.142494 52.752544
82.422073 26.046154 54.269848
82.972702 25.900318 53.303871
83.335007 25.803919 54.817501
83.886185 25.657928 53.853615
84.245468 25.562336 55.363678
84.797188 25.416195 54.401871
85.153473 25.321398 55.908386
85.705688 25.174679 54.948616
86.059082 25.081545 56.451656
86.611839 24.934685 55.493942
86.96225 24.842342 56.993454
87.515579 24.695782 56.037842
87.310684 24.750069 58.48468
87.862946 24.603348 57.533772
88.416763 24.456205 56.580177
88.208443 24.511856 59.021515
88.761261 24.365425 58.072674
89.315575 24.217712 57.121094
89.103798 24.274277 59.556915
89.657135 24.127714 58.610088
90.212006 23.980293 57.660572
90.550583 23.890198 59.146065
91.105965 23.742641 58.198574
91.44165 23.653309 59.680611
91.997597 23.506496 58.735168
92.330414 23.418373 60.213772
92.886818 23.270546 59.270313
55.418312 34.065399 9.1353302
70.400581 30.083599 6.044796
71.706635 29.736454 5.7753525
54.280102 34.367233 10.854084
55.468586 34.051327 10.613899
56.665222 33.734177 10.372765
57.869915 33.414417 10.129654
69.091652 30.431246 7.861515
70.382355 30.088171 7.6006699
71.682167 29.742683 7.3379936
72.99115 29.395237 7.073822
55.518665 34.039574 12.080791
56.709995 33.723373 11.845348
57.909279 33.404156 11.607658
59.116741 33.083214 11.368687
69.079651 30.436039 9.3975906
70.364273 30.093655 9.1426506
71.657883 29.749817 8.8866234
56.754311 33.712238 13.304319
57.948326 33.394424 13.072622
59.150475 33.075356 12.840008
60.360699 32.753227 12.605164
61.579151 32.428459 12.368389
67.798126 30.77639 11.163967
69.067795 30.439388 10.918274
70.346306 30.10004 10.670876
71.633766 29.757843 10.421398
57.987053 33.385223 14.524702
59.183788 33.066238 14.297066
60.388714 32.746422 14.068838
61.601761 32.424015 13.838755
67.792274 30.779541 12.665222
69.05603 30.443645 12.425518
70.328552 30.105412 12.184147
59.216919 33.058525 15.741959
60.416527 32.740578 15.51992
61.624119 32.418709 15.295147
67.786484 30.781719 14.151958
69.044395 30.446924 13.918156
70.310989 30.109806 13.68273
58.063393 33.366188 17.389322
59.249737 33.050873 17.173895
60.443981 32.733009 16.956726
67.780762 30.783886 15.625063
69.032837 30.451096 15.397697
70.293556 30.115559 15.168453
59.282204 33.042427 18.592466
60.471249 32.726387 18.381287
67.775085 30.785566 17.08441
69.021416 30.454777 16.863369
70.276268 30.121256 16.640507
59.314445 33.034916 19.99902
60.498299 32.720272 19.793446
67.76947 30.787241 18.530506
69.010078 30.458883 18.315971
70.259163 30.126434 18.09877
59.346443 33.027908 21.393404
60.525105 32.714207 21.193066
61.711601 32.398857 20.991676
67.763885 30.789354 19.963821
68.998878 30.461121 19.754204
70.24221 30.131109 19.543453
58.212036 33.328697 22.967522
59.378052 33.01968 22.774685
60.551678 32.708187 22.580307
61.732952 32.393341 22.383839
67.758354 30.792347 21.384789
68.987732 30.465607 21.180895
70.225403 30.13666 20.975624
58.248432 33.320065 24.331953
59.409416 33.01194 24.144135
60.577988 32.701801 23.955086
61.75423 32.390057 23.765064
67.752884 30.794422 22.79244
68.9767 30.469152 22.594173
70.208755 30.141697 22.394571
58.284512 33.311516 25.684507
59.440514 33.004269 25.501633
60.603992 32.694168 25.317057
61.775146 32.383335 25.132046
67.747452 30.796474 24.187525
68.965775 30.473116 23.995058
70.192245 30.147161 23.801044
71.426941 29.819008 23.605724
58.320206 33.302185 27.024847
59.47131 32.996243 26.847097
60.62989 32.688747 26.668442
61.796005 32.379265 26.488632
67.742073 30.79895 25.570469
68.954948 30.476599 25.383179
70.175911 30.151655 25.194389
58.355621 33.293346 28.353878
59.501888 32.989136 28.181414
60.655521 32.682526 28.007595
61.816643 32.374359 27.832891
66.537186 31.119772 27.121647
67.73674 30.800966 26.940912
68.944229 30.479601 26.758728
70.159683 30.157015 26.575846
58.39085 33.285854 29.672199
59.532185 32.981655 29.503994
60.680878 32.675503 29.334703
61.837036 32.368225 29.164797
66.537186 31.120369 28.474792
67.731438 30.803846 28.29977
68.933548 30.484367 28.123116
70.143593 30.162777 27.945292
58.425587 33.276329 30.978088
59.562214 32.974251 30.815235
60.706142 32.670658 30.651566
61.857353 32.364273 30.486389
66.537186 31.120073 29.815632
67.726234 30.804054 29.645264
68.923042 30.486416 29.474022
70.127686 30.167143 29.301899
58.460186 33.268562 32.273766
59.592026 32.967319 32.115498
60.731144 32.665009 31.956665
61.877491 32.359924 31.796377
66.537193 31.121092 31.145512
67.721039 30.806023 30.979979
68.912598 30.489784 30.813829
70.111938 30.171021 30.646357
71.319138 29.850639 30.478031
57.374283 33.557285 33.710144
58.494305 33.258774 33.557373
59.621521 32.959625 33.40427
60.755852 32.658154 33.249985
61.897358 32.35392 33.09428
63.046234 32.049442 32.938454
64.202469 31.743448 32.781849
66.537186 31.122099 32.463852
67.715874 30.808842 32.303532
68.902222 30.493549 32.14217
70.096291 30.17621 31.979761
71.298103 29.857683 31.816744
57.412788 33.547195 34.978733
58.528316 33.251144 34.831215
59.650795 32.9524 34.68235
60.78038 32.651775 34.532547
61.917122 32.349236 34.38179
63.061188 32.04689 34.231133
64.212463 31.740927 34.078671
65.371101 31.432566 33.925014
66.537186 31.122665 33.770592
67.710793 30.810335 33.614956
68.89196 30.496857 33.458752
70.08078 30.180906 33.301311
71.277321 29.863337 33.143066
72.481674 29.543274 32.983582
57.451084 33.538403 36.237293
58.561932 33.24234 36.093723
59.679848 32.945656 35.949852
60.804821 32.64753 35.805283
61.936848 32.347103 35.659595
63.075958 32.043095 35.512173
64.222382 31.73842 35.364429
65.376091 31.431805 35.21574
66.537178 31.124086 35.066521
67.705711 30.813541 34.915928
68.88176 30.500559 34.764153
70.065414 30.185558 34.611397
71.256737 29.868511 34.457653
72.45575 29.550295 34.303341
57.488953 33.528461 37.484756
58.595409 33.235252 37.346455
59.708637 32.93856 37.206512
60.82893 32.641247 37.06628
61.956234 32.341656 36.924969
63.090656 32.040592 36.782967
64.232239 31.737206 36.639866
65.381058 31.431896 36.495857
66.537186 31.124645 36.350937
67.700699 30.814995 36.204884
68.871681 30.503368 36.057896
70.050156 30.190609 35.910378
71.236198 29.87627 35.762112
57.526573 33.519424 38.72224
58.628464 33.226582 38.587963
59.737206 32.931927 38.452858
60.852859 32.635429 38.316902
61.975441 32.335838 38.179527
63.105171 32.036438 38.042244
64.241997 31.735161 37.904099
65.385956 31.430296 37.764309
66.537186 31.12434 37.62402
67.695724 30.816872 37.483036
68.861664 30.507015 37.340958
70.035034 30.19561 37.198166
71.215927 29.882214 37.054462
57.563889 33.510452 39.949474
58.661282 33.218391 39.819363
59.76548 32.92453 39.688446
60.876572 32.62925 39.556896
61.994583 32.332127 39.42453
63.119591 32.033146 39.291332
64.25164 31.731876 39.157116
65.390823 31.42955 39.02243
66.537186 31.124897 38.886707
67.690796 30.818731 38.750309
68.85173 30.510641 38.613056
70.020073 30.199713 38.474537
71.195869 29.887234 38.335327
57.600899 33.50156 41.166584
58.693867 33.21069 41.04076
59.793583 32.918018 40.914158
60.900139 32.62394 40.786945
62.013535 32.327625 40.658768
63.133904 32.030304 40.530151
64.261261 31.731125 40.400734
65.39566 31.429644 40.270317
66.537186 31.12628 40.139088
67.685905 30.821007 40.007034
68.841896 30.513369 39.873955
70.005203 30.204639 39.740406
71.175911 29.893946 39.606007
57.637486 33.491535 42.373192
58.726109 33.202229 42.251755
59.821419 32.91114 42.129562
60.923477 32.618263 42.006622
62.032349 32.323582 41.882927
63.148087 32.027065 41.758461
64.270767 31.729128 41.633392
65.400444 31.428907 41.507374
66.537186 31.1264 41.38039
67.681068 30.822409 41.252785
68.832138 30.516926 41.124554
69.990517 30.208237 40.994976
71.156212 29.898449 40.864937
56.59623 33.769585 43.687191
57.673923 33.483185 43.57061
58.758183 33.195042 43.45332
59.849083 32.905136 43.335308
60.946678 32.613453 43.216576
62.050999 32.319565 43.096947
63.162159 32.024273 42.976746
64.280205 31.727146 42.855797
65.40519 31.428183 42.7341
66.537193 31.127352 42.611641
67.676254 30.824217 42.488247
68.822472 30.519611 42.364254
69.975899 30.213081 42.239479
71.136574 29.905052 42.11409
72.304626 29.594648 41.98774
55.569592 34.042931 44.982327
56.63652 33.758984 44.870319
57.709957 33.473717 44.757793
58.789879 33.186321 44.644428
59.876415 32.897572 44.530525
60.969563 32.606655 44.415771
62.069458 32.314766 44.300632
63.176113 32.021088 44.184788
64.289558 31.725187 44.068066
65.409897 31.427454 43.950623
66.537186 31.12788 43.832451
67.671494 30.826439 43.713547
68.812874 30.523115 43.593895
69.961395 30.218315 43.473663
71.117157 29.910748 43.352341
72.28019 29.601671 43.230423
73.450577 29.290644 43.107735
55.613682 34.030907 46.151779
56.676449 33.748074 46.043747
57.745735 33.464722 45.935516
58.821373 33.178463 45.826172
59.903549 32.890472 45.716171
60.992359 32.601528 45.605804
62.087803 32.310814 45.494762
63.189938 32.017929 45.382889
64.298828 31.722828 45.270172
65.414558 31.426327 45.156918
66.537186 31.127985 45.042961
67.666771 30.827797 44.928299
68.803391 30.525324 44.812763
69.947037 30.222652 44.697155
71.097908 29.916393 44.580173
72.255936 29.609066 44.462784
73.421349 29.298519 44.344166
54.605259 34.300201 47.415794
55.657608 34.020542 47.312443
56.716137 33.738041 47.208035
58.852646 33.17107 46.998497
59.930573 32.885021 46.89278
61.014969 32.596439 46.786129
62.105965 32.306099 46.678825
63.203644 32.014397 46.571022
64.308037 31.72131 46.462704
65.419197 31.426023 46.353573
66.537186 31.129335 46.243927
67.662071 30.83082 46.133602
68.793938 30.528774 46.021973
69.932823 30.226538 45.910275
71.078827 29.921576 45.797569
72.231949 29.615557 45.684475
73.392311 29.307192 45.570511
74.55999 28.996883 45.455826
53.610615 34.564224 48.661732
54.65266 34.286911 48.562649
55.700951 34.00832 48.463116
59.957291 32.878422 48.059422
61.037392 32.591389 47.956867
62.124023 32.302219 47.853554
63.217247 32.011292 47.749607
64.317154 31.71899 47.645176
65.423775 31.424498 47.539955
66.537186 31.128611 47.434242
67.657433 30.83173 47.328171
68.784592 30.531784 47.221004
69.918709 30.230812 47.113472
71.059814 29.928392 47.005421
72.208069 29.623255 46.8964
73.363487 29.316208 46.786697
74.526169 29.006811 46.676155
75.696167 28.695463 46.564915
