# .PCD v0.7 - Point Cloud Data file format
VERSION 0.7
FIELDS x y z
SIZE 4 4 4
TYPE F F F
COUNT 1 1 1
WIDTH 1569
HEIGHT 1
VIEWPOINT 0 0 0 1 0 0 0
POINTS 1569
DATA ascii
15.034088 -12.971924 62.324581
15.034091 -12.971926 61.044647
15.034091 -12.971926 59.764717
15.034091 -12.971926 58.484779
15.034091 -12.971926 57.204853
15.034094 -12.971929 55.924919
15.034091 -12.971926 54.644989
15.034096 -12.97193 53.365051
15.034088 -12.971924 52.085129
15.034086 -12.971922 50.805199
15.034088 -12.971924 49.525261
15.034091 -12.971926 48.245331
15.034089 -12.971925 46.965401
15.034086 -12.971922 45.685471
15.034089 -12.971925 44.405533
15.034091 -12.971926 43.125599
15.034089 -12.971925 41.845669
15.034091 -12.971926 40.565735
15.034089 -12.971925 39.285805
15.034092 -12.971928 38.005871
15.034091 -12.971926 36.725941
15.034092 -12.971928 35.446014
15.034089 -12.971925 34.166084
15.034092 -12.971928 32.88615
15.034091 -12.971926 31.60622
15.034092 -12.971928 30.326286
15.034096 -12.97193 29.04635
15.034092 -12.971928 27.76642
15.034096 -12.97193 26.486486
15.034088 -12.971924 25.20656
15.034091 -12.971926 23.926624
15.034089 -12.971925 22.646696
15.034091 -12.971926 21.36676
15.034089 -12.971925 20.08683
15.034091 -12.971926 18.806896
15.034089 -12.971925 17.526966
15.034091 -12.971926 16.24703
15.034089 -12.971925 14.967102
15.034088 -12.971924 13.687172
15.034089 -12.971925 12.407236
15.034088 -12.971924 11.127308
15.034091 -12.971926 9.8473721
15.034088 -12.971924 8.5674419
15.034097 -12.971931 7.2875137
15.034089 -12.971925 6.007576
15.034091 -12.971926 4.7276535
14.93586 -12.88717 3.4068604
14.567812 -12.569608 1.9671555
3.0869744 -4.5626798 95.202606
3.0873911 -4.5630317 93.764572
3.0873897 -4.5630302 92.326767
3.0873868 -4.5630279 90.888962
3.0873954 -4.5630355 89.451157
3.6298525 -5.0209012 87.758972
3.0465584 -4.5285659 86.594109
3.0465569 -4.5285649 85.155724
3.0465569 -4.5285649 83.717339
3.0465598 -4.5285678 82.278946
10.253871 -10.61196 77.973038
12.355229 -12.38563 75.830872
13.60955 -13.44435 74.06134
14.142893 -13.894523 72.583595
14.142892 -13.894522 71.302887
14.142896 -13.894526 70.022156
14.142898 -13.894526 68.741455
14.142895 -13.894525 67.460739
14.142896 -13.894526 66.180023
14.142892 -13.894522 64.899307
14.142893 -13.894523 63.618599
14.142892 -13.894522 62.337887
14.142893 -13.894523 61.057167
14.142896 -13.894526 59.776451
14.1429 -13.894529 58.495735
14.142896 -13.894526 57.215019
14.142896 -13.894526 55.934311
14.142893 -13.894523 54.653595
14.142898 -13.894526 53.372883
14.142895 -13.894525 52.092171
14.14289 -13.894521 50.811455
14.1429 -13.894529 49.530735
14.142892 -13.894522 48.250027
14.142898 -13.894526 46.969311
14.142895 -13.894525 45.688599
14.142895 -13.894525 44.407879
14.142895 -13.894525 43.127171
14.142896 -13.894526 41.846451
14.142898 -13.894526 40.565742
14.142893 -13.894523 39.285027
14.142898 -13.894526 38.004314
14.142899 -13.894528 36.723595
14.142896 -13.894526 35.442879
14.142892 -13.894522 34.162163
14.142892 -13.894522 32.881454
14.142898 -13.894526 31.600742
14.142895 -13.894525 30.320028
14.142895 -13.894525 29.039309
14.142892 -13.894522 27.758595
14.142896 -13.894526 26.47788
14.142893 -13.894523 25.197166
14.142893 -13.894523 23.916458
14.142895 -13.894525 22.635738
14.1429 -13.894529 21.355024
14.142896 -13.894526 20.07431
14.142893 -13.894523 18.793596
14.14289 -13.894521 17.51288
14.142895 -13.894525 16.232166
14.142892 -13.894522 14.951454
14.1429 -13.894529 13.670746
14.142898 -13.894526 12.390032
14.142898 -13.894526 11.109312
14.142893 -13.894523 9.828598
14.14289 -13.894521 8.5478821
14.142895 -13.894525 7.26717
14.142896 -13.894526 5.9864502
14.142893 -13.894523 4.7057343
14.038602 -13.806495 3.3820496
13.656142 -13.483677 1.9368172
1.6290362 -5.2230601 95.48008
1.6290274 -5.2230525 94.034973
1.6290259 -5.2230515 92.589859
1.6290259 -5.2230515 91.144745
1.6290348 -5.2230587 89.699623
2.4420257 -5.8942933 87.876801
1.6088562 -5.2063985 86.818489
1.6084311 -5.2060475 85.373276
1.6084282 -5.2060452 83.927872
1.6080029 -5.2056942 82.482635
8.9257135 -11.247461 78.152557
11.199594 -13.124859 75.945816
12.514236 -14.210277 74.154221
13.145557 -14.731519 72.640152
13.145553 -14.731515 71.357178
13.145557 -14.731519 70.074203
13.145555 -14.731517 68.791222
13.145558 -14.73152 67.50824
13.145552 -14.731513 66.225273
13.145555 -14.731516 64.942291
13.145555 -14.731516 63.659317
13.145557 -14.731519 62.376335
13.145555 -14.731517 61.093357
13.145553 -14.731515 59.810394
13.145555 -14.731516 58.527409
13.145555 -14.731516 57.244431
13.145561 -14.731522 55.961456
13.145557 -14.731519 54.678474
13.145557 -14.731519 53.395508
13.145553 -14.731515 52.112526
13.145557 -14.731519 50.829548
13.145557 -14.731519 49.546574
13.145557 -14.731519 48.263599
13.145553 -14.731515 46.980618
13.145557 -14.731519 45.697647
13.145557 -14.731519 44.414661
13.145557 -14.731519 43.131699
13.145557 -14.731519 41.848709
13.145552 -14.731513 40.565742
13.145555 -14.731517 39.282761
13.145555 -14.731517 37.999786
13.145555 -14.731517 36.716812
13.14556 -14.731521 35.43383
13.145555 -14.731517 34.15086
13.14556 -14.731521 32.867878
13.145552 -14.731513 31.584904
13.145555 -14.731517 30.301922
13.145555 -14.731517 29.018948
13.145555 -14.731516 27.735973
13.145555 -14.731517 26.452997
13.145555 -14.731516 25.170021
13.14556 -14.731521 23.887041
13.145555 -14.731516 22.604073
13.14556 -14.731521 21.321091
13.145552 -14.731513 20.038115
13.145557 -14.731519 18.75514
13.145555 -14.731516 17.47216
13.145557 -14.731519 16.18919
13.145552 -14.731513 14.906204
13.145555 -14.731516 13.623236
13.145558 -14.73152 12.340256
13.145555 -14.731516 11.057283
13.145555 -14.731516 9.7742977
13.145557 -14.731519 8.4913292
13.145558 -14.73152 7.2083511
13.145555 -14.731516 5.9253731
13.145219 -14.731238 4.6422653
13.028734 -14.635064 3.3117218
12.619722 -14.297369 1.854351
-0.42176598 -5.4234352 94.606239
-0.42176884 -5.4234328 93.145683
-0.42176884 -5.4234328 91.685135
-0.42177027 -5.4234314 90.224579
1.078378 -6.6348758 88.07341
-0.48770851 -5.3701825 87.332901
-0.4877128 -5.3701792 85.871429
-0.48815817 -5.3698192 84.410149
-0.48814815 -5.3698277 82.948654
7.5870132 -11.890922 78.332932
10.037465 -13.869784 76.061111
11.403088 -14.972592 74.251144
12.144689 -15.571472 72.696915
12.144689 -15.571472 71.411659
12.144691 -15.571474 70.126411
12.144691 -15.571474 68.841171
12.144689 -15.571472 67.555916
12.144685 -15.571469 66.270676
12.144687 -15.57147 64.985428
12.144691 -15.571474 63.70018
12.144687 -15.57147 62.414936
12.144689 -15.571472 61.129688
12.144691 -15.571474 59.844437
12.144687 -15.57147 58.559189
12.144691 -15.571474 57.273941
12.144691 -15.571474 55.988689
12.144692 -15.571476 54.703457
12.144692 -15.571476 53.418201
12.144687 -15.571471 52.132965
12.144687 -15.571471 50.847713
12.144683 -15.571467 49.562466
12.144687 -15.571471 48.277218
12.144691 -15.571474 46.991974
12.144689 -15.571472 45.70673
12.144689 -15.571472 44.421478
12.144692 -15.571476 43.13623
12.144689 -15.571472 41.850983
12.144689 -15.571472 40.565742
12.144689 -15.571472 39.280487
12.144692 -15.571475 37.995243
12.144692 -15.571475 36.709999
12.144687 -15.57147 35.424751
12.144691 -15.571474 34.139503
12.144687 -15.57147 32.854256
12.144689 -15.571472 31.569012
12.144692 -15.571476 30.283764
12.144692 -15.571475 28.998522
12.144687 -15.571471 27.713276
12.144687 -15.57147 26.428022
12.144691 -15.571474 25.142776
12.144687 -15.57147 23.857527
12.144689 -15.571472 22.572281
12.144689 -15.571472 21.287039
12.144692 -15.571475 20.001791
12.144687 -15.571471 18.716543
12.144687 -15.571471 17.431292
12.144683 -15.571467 16.146044
12.144683 -15.571467 14.860802
12.144687 -15.57147 13.575554
12.144689 -15.571472 12.29031
12.144685 -15.571469 11.00506
12.144689 -15.571472 9.7198143
12.144692 -15.571475 8.4345665
12.144692 -15.571475 7.1493263
12.144687 -15.57147 5.8640785
12.142632 -15.569811 4.5780334
12.014355 -15.466221 3.2408562
11.57747 -15.113415 1.7709503
-2.515491 -5.629221 87.807602
5.6648169 -12.089946 78.735901
8.868103 -14.619869 76.177025
10.275976 -15.731791 74.352051
11.14027 -16.414404 72.75386
11.14027 -16.414404 71.466347
11.140274 -16.414408 70.178818
11.140267 -16.4144 68.891296
11.140274 -16.414408 67.603767
11.140274 -16.414408 66.316246
11.140273 -16.414406 65.028717
11.140268 -16.414402 63.741188
11.140271 -16.414404 62.453667
11.14027 -16.414404 61.166145
11.140271 -16.414404 59.878616
11.140268 -16.414402 58.591095
11.140277 -16.41441 57.303566
11.140268 -16.414402 56.016045
11.140273 -16.414406 54.728508
11.140271 -16.414404 53.44099
11.140271 -16.414404 52.153461
11.14027 -16.414404 50.865944
11.14027 -16.414404 49.578415
11.140274 -16.414408 48.290886
11.140273 -16.414406 47.003357
11.140273 -16.414406 45.715839
11.140276 -16.414408 44.428314
11.140273 -16.414406 43.140789
11.140276 -16.414408 41.853264
11.140276 -16.414408 40.565735
11.140276 -16.414408 39.278217
11.140276 -16.414408 37.990685
11.14027 -16.414404 36.703163
11.140274 -16.414408 35.415638
11.140273 -16.414406 34.128109
11.140273 -16.414406 32.840588
11.140273 -16.414406 31.553059
11.140273 -16.414406 30.265539
11.140273 -16.414406 28.978008
11.140276 -16.414408 27.690485
11.140274 -16.414408 26.402966
11.140276 -16.414408 25.115437
11.140274 -16.414408 23.827915
11.140274 -16.414408 22.540386
11.140273 -16.414406 21.252857
11.140273 -16.414406 19.965338
11.140273 -16.414406 18.677809
11.140277 -16.41441 17.390282
11.140271 -16.414404 16.102757
11.140271 -16.414404 14.815228
11.140276 -16.414408 13.527714
11.140274 -16.414408 12.240185
11.140276 -16.414408 10.952656
11.14027 -16.414404 9.6651421
11.14027 -16.414404 8.3776093
11.140276 -16.414408 7.0900917
11.140273 -16.414406 5.8025665
11.136801 -16.411663 4.5136909
10.99298 -16.298075 3.168457
10.531427 -15.933546 1.6874771
7.249155 -15.033549 76.457169
9.0027199 -16.387911 74.503212
9.9447145 -17.115459 72.875275
9.9447136 -17.115459 71.582901
9.9447136 -17.115459 70.290512
9.9447136 -17.115459 68.998131
9.9447145 -17.115459 67.70575
9.9447117 -17.115458 66.413368
9.9447174 -17.115463 65.120987
9.9447145 -17.115459 63.828606
9.9447136 -17.115459 62.536224
9.9447136 -17.115459 61.243843
9.9447136 -17.115459 59.951462
9.9447174 -17.115463 58.659081
9.9447136 -17.115459 57.366699
9.9447174 -17.115463 56.074318
9.9447136 -17.115459 54.781937
9.9447174 -17.115463 53.489552
9.9447136 -17.115459 52.19717
9.9447174 -17.115463 50.904789
9.9447174 -17.115463 49.612411
9.9447174 -17.115463 48.320023
9.9447136 -17.115459 47.027641
9.9447136 -17.115459 45.735264
9.9447174 -17.115463 44.442883
9.9447145 -17.115459 43.150501
9.9447174 -17.115463 41.85812
9.9447174 -17.115463 40.565742
9.9447174 -17.115463 39.273354
9.9447145 -17.115459 37.980972
9.9447174 -17.115463 36.688591
9.9447174 -17.115463 35.396214
9.9447193 -17.115463 34.103825
9.9447136 -17.115459 32.811455
9.9447174 -17.115463 31.519072
9.9447136 -17.115459 30.226688
9.9447136 -17.115459 28.934303
9.9447145 -17.115459 27.641926
9.9447174 -17.115463 26.349543
9.9447145 -17.115459 25.057159
9.9447174 -17.115463 23.764778
9.9447174 -17.115463 22.472401
9.9447145 -17.115459 21.180019
9.9447145 -17.115459 19.887632
9.9447145 -17.115459 18.595257
9.9447145 -17.115459 17.302868
9.9447193 -17.115463 16.010496
9.9447193 -17.115463 14.718109
9.9447174 -17.115463 13.425732
9.9447193 -17.115463 12.133345
9.9447145 -17.115459 10.840961
9.9447193 -17.115463 9.5485802
9.9447145 -17.115459 8.2561989
9.9447222 -17.115467 6.9638214
9.9447193 -17.115463 5.6714401
9.9366083 -17.1092 4.3759499
9.7422342 -16.959076 3.0062294
9.1535549 -16.50441 1.4691048
5.4475093 -15.335202 76.799339
7.3917589 -16.803532 74.77092
8.6213007 -17.732101 73.037933
8.6213026 -17.732103 71.739044
8.6213045 -17.732103 70.440155
8.6213064 -17.732105 69.141266
8.6213026 -17.732103 67.842384
8.6213026 -17.732103 66.543495
8.6213045 -17.732103 65.244606
8.6213102 -17.732109 63.945717
8.6213007 -17.732101 62.646835
8.6213007 -17.732101 61.347946
8.6213026 -17.732103 60.049053
8.6213064 -17.732105 58.750164
8.6213007 -17.732101 57.451286
8.6213026 -17.732103 56.152393
8.6213045 -17.732105 54.853504
8.6213064 -17.732105 53.554619
8.6213007 -17.732101 52.255737
8.6212988 -17.7321 50.956841
8.6213026 -17.732103 49.657951
8.6213045 -17.732103 48.359062
8.6213026 -17.732103 47.060177
8.6213045 -17.732105 45.761288
8.6213045 -17.732103 44.462402
8.6213026 -17.732103 43.163509
8.6213045 -17.732103 41.864632
8.6213064 -17.732105 40.565742
8.6213007 -17.732101 39.26685
8.6213045 -17.732103 37.96796
8.6213045 -17.732103 36.669083
8.6213045 -17.732103 35.370186
8.6213026 -17.732103 34.071304
8.6213045 -17.732103 32.772411
8.6213026 -17.732103 31.47353
8.6213045 -17.732103 30.174639
8.6213064 -17.732105 28.87575
8.6213026 -17.732103 27.576859
8.6213045 -17.732103 26.277969
8.6213045 -17.732105 24.979092
8.6213045 -17.732105 23.680197
8.6213064 -17.732105 22.381306
8.6213045 -17.732103 21.082422
8.6213083 -17.732107 19.783533
8.6213045 -17.732105 18.48465
8.6213083 -17.732107 17.185759
8.6213045 -17.732105 15.886875
8.6213045 -17.732105 14.587978
8.6213026 -17.732103 13.289095
8.6213083 -17.732107 11.990211
8.6213045 -17.732103 10.691322
8.6213064 -17.732105 9.3924313
8.6213007 -17.732101 8.093544
8.6213064 -17.732105 6.7946587
8.6213045 -17.732103 5.4957733
8.6018896 -17.717442 4.1894989
8.3586063 -17.53371 2.7945404
7.6696715 -17.013416 1.2114334
3.1793256 -15.323788 77.305038
5.7547965 -17.225475 75.043022
7.0992031 -18.218166 73.264587
7.2845006 -18.354988 71.896774
7.2845016 -18.354988 70.591316
7.284493 -18.35498 69.285858
7.2845044 -18.354992 67.980392
7.2844977 -18.354984 66.674942
7.284493 -18.35498 65.369476
7.2845006 -18.354988 64.064018
7.2844987 -18.354986 62.75856
7.2844949 -18.354982 61.453094
7.2845016 -18.354988 60.147636
7.2844987 -18.354986 58.842178
7.2844987 -18.354986 57.53672
7.2845006 -18.354988 56.231255
7.2845006 -18.354988 54.925797
7.2844987 -18.354986 53.620342
7.2845006 -18.354988 52.314873
7.2845006 -18.354988 51.009415
7.2844958 -18.354984 49.703964
7.2845006 -18.354988 48.398491
7.2844958 -18.354984 47.09304
7.2845016 -18.354988 45.787579
7.2844977 -18.354984 44.482117
7.2844958 -18.354984 43.176659
7.2845016 -18.354988 41.871201
7.2844987 -18.354986 40.565735
7.2844977 -18.354984 39.260277
7.2845016 -18.354988 37.954819
7.2845016 -18.354988 36.649361
7.2844987 -18.354986 35.343899
7.2844987 -18.354986 34.038441
7.2845035 -18.35499 32.732979
7.2844987 -18.354986 31.427517
7.2844987 -18.354986 30.122061
7.2845035 -18.35499 28.816601
7.2844949 -18.354982 27.511143
7.2844987 -18.354986 26.205681
7.2845006 -18.354988 24.900223
7.2845006 -18.354988 23.594755
7.2844987 -18.354986 22.289299
7.2845006 -18.354988 20.983843
7.2845006 -18.354988 19.678375
7.284492 -18.35498 18.372917
7.2845016 -18.354988 17.067461
7.2845006 -18.354988 15.762005
7.284493 -18.35498 14.456535
7.2845016 -18.354988 13.151081
7.2845016 -18.354988 11.845623
7.2845006 -18.354988 10.540165
7.2845016 -18.354988 9.2346992
7.2845016 -18.354988 7.929245
7.2845016 -18.354988 6.6237869
7.2844949 -18.354982 5.3183174
7.2507935 -18.330097 4.000164
6.9522872 -18.109684 2.5777245
5.6602373 -17.155657 0.74607849
3.7347407 -17.396605 75.443268
5.5135546 -18.680635 73.508484
5.8982606 -18.958334 72.067589
5.8982539 -18.958328 70.755013
5.8982577 -18.958332 69.442436
5.8982539 -18.958328 68.12986
5.8982568 -18.958332 66.817276
5.8982577 -18.958332 65.504707
5.8982549 -18.958328 64.192131
5.8982606 -18.958334 62.879547
5.8982549 -18.958328 61.566971
5.8982549 -18.958328 60.254402
5.8982596 -18.958332 58.941814
5.8982549 -18.958328 57.629238
5.8982549 -18.958328 56.316658
5.8982549 -18.958328 55.004089
5.8982511 -18.958324 53.691513
5.8982577 -18.958332 52.378929
5.8982568 -18.958332 51.06636
5.8982625 -18.958336 49.753777
5.8982568 -18.958332 48.4412
5.8982539 -18.958328 47.128624
5.8982568 -18.958332 45.816048
5.8982568 -18.958332 44.503468
5.8982568 -18.958332 43.190899
5.8982568 -18.958332 41.878319
5.8982549 -18.958328 40.565735
5.8982568 -18.958332 39.253155
5.8982596 -18.958332 37.940578
5.8982596 -18.958332 36.62801
5.8982596 -18.958332 35.31543
5.8982577 -18.958332 34.002857
5.8982577 -18.958332 32.690277
5.8982577 -18.958332 31.377697
5.8982539 -18.958328 30.065121
5.8982568 -18.958332 28.752544
5.8982577 -18.958332 27.439964
5.8982606 -18.958334 26.12739
5.8982568 -18.958332 24.814814
5.8982568 -18.958332 23.502234
5.8982568 -18.958332 22.189663
5.8982549 -18.958328 20.877081
5.8982596 -18.958332 19.564507
5.8982596 -18.958332 18.251926
5.8982539 -18.958328 16.93935
5.8982577 -18.958332 15.626774
5.8982577 -18.958332 14.314194
5.8982539 -18.958328 13.001617
5.8982539 -18.958328 11.689037
5.8982568 -18.958332 10.376472
5.8982568 -18.958332 9.0638924
5.8982568 -18.958332 7.7513123
5.8982596 -18.958332 6.438736
5.8982596 -18.958332 5.1261559
5.8257442 -18.905989 3.7864876
5.3631363 -18.572056 2.2939529
0.99256605 -17.095711 76.084953
3.3467507 -18.756813 73.940353
4.0852833 -19.277916 72.370918
4.085289 -19.27792 71.0457
4.08529 -19.27792 69.720482
4.0852842 -19.277916 68.395264
4.085289 -19.27792 67.070045
4.0852861 -19.277916 65.744835
4.0852833 -19.277916 64.419624
4.085289 -19.27792 63.094406
4.0852861 -19.277918 61.769188
4.0852919 -19.277924 60.443977
4.0852871 -19.27792 59.118752
4.0852861 -19.277918 57.793545
4.0852919 -19.277924 56.468323
4.0852871 -19.27792 55.143112
4.0852814 -19.277914 53.817902
4.0852861 -19.277918 52.492676
4.0852861 -19.277918 51.167458
4.0852861 -19.277916 49.842255
4.08529 -19.27792 48.517029
4.0852861 -19.277916 47.191818
4.0852814 -19.277914 45.866608
4.0852861 -19.277916 44.541386
4.08529 -19.27792 43.216171
4.08529 -19.27792 41.890957
4.08529 -19.27792 40.565739
4.08529 -19.27792 39.24052
4.0852861 -19.277916 37.91531
4.0852852 -19.277916 36.590092
4.085289 -19.27792 35.264881
4.0852852 -19.277916 33.939659
4.085289 -19.27792 32.614445
4.085289 -19.27792 31.289228
4.08529 -19.27792 29.96401
4.0852852 -19.277916 28.638798
4.0852842 -19.277916 27.313581
4.0852842 -19.277916 25.988365
4.085289 -19.27792 24.663153
4.085289 -19.27792 23.337934
4.085288 -19.27792 22.012718
4.085289 -19.27792 20.6875
4.0852833 -19.277916 19.362289
4.0852842 -19.277916 18.037071
4.0852871 -19.27792 16.711861
4.085288 -19.27792 15.386642
4.0852871 -19.27792 14.061424
4.0852842 -19.277916 12.736202
4.0852928 -19.277924 11.410995
4.0852833 -19.277916 10.085779
4.0852833 -19.277916 8.760561
4.0852871 -19.27792 7.4353409
4.0852919 -19.277924 6.1101265
4.0852861 -19.277918 4.7849159
3.9295034 -19.167999 3.4020042
3.280067 -18.709761 1.8256111
0.88330358 -18.670139 74.462067
2.2374573 -19.603992 72.680016
2.237464 -19.604 71.341919
2.2374601 -19.603996 70.003822
2.2374592 -19.603994 68.665733
2.2374592 -19.603994 67.327637
2.2374563 -19.603992 65.98954
2.237463 -19.603998 64.651443
2.2374601 -19.603996 63.313351
2.2374563 -19.603992 61.975258
2.2374573 -19.603992 60.637161
2.2374573 -19.603992 59.299072
2.2374601 -19.603996 57.960968
2.2374573 -19.603992 56.622875
2.237462 -19.603996 55.284782
2.2374592 -19.603994 53.946693
2.2374516 -19.603989 52.608593
2.237462 -19.603996 51.270496
2.2374582 -19.603992 49.932404
2.2374601 -19.603996 48.594307
2.2374573 -19.603992 47.256218
2.237463 -19.603996 45.918114
2.2374601 -19.603996 44.580025
2.2374601 -19.603996 43.241924
2.2374573 -19.603992 41.903835
2.2374592 -19.603994 40.565739
2.2374563 -19.603992 39.227646
2.2374573 -19.603992 37.889549
2.2374592 -19.603994 36.551453
2.2374563 -19.603992 35.21336
2.2374611 -19.603996 33.875267
2.2374582 -19.603992 32.537167
2.2374601 -19.603996 31.199068
2.2374601 -19.603996 29.860983
2.2374611 -19.603996 28.522884
2.2374544 -19.603991 27.184788
2.2374601 -19.603996 25.846697
2.2374611 -19.603996 24.508598
2.2374582 -19.603992 23.170507
2.2374554 -19.603992 21.832405
2.2374611 -19.603996 20.494314
2.237463 -19.603996 19.156218
2.2374592 -19.603994 17.818127
2.2374525 -19.603989 16.480026
2.2374611 -19.603996 15.141941
2.237463 -19.603996 13.803846
2.2374601 -19.603996 12.465744
2.2374573 -19.603992 11.127651
2.2374544 -19.603989 9.7895584
2.2374601 -19.603996 8.4514542
2.2374573 -19.603992 7.1133652
2.237462 -19.603996 5.7752724
2.2283745 -19.597729 4.43396
1.9610558 -19.41338 2.9975929
1.0674677 -18.797142 1.3160362
-3.7824807 -17.149246 75.690811
0.09603399 -19.76305 73.075485
0.096035898 -19.763052 71.720909
0.096027315 -19.763044 70.366341
0.096029222 -19.763046 69.011765
0.096033037 -19.76305 67.657196
0.096028268 -19.763046 66.302628
0.096031129 -19.763048 64.948044
0.096035898 -19.763052 63.593479
0.096030176 -19.763046 62.238903
0.096033037 -19.76305 60.884331
0.096034944 -19.763052 59.529755
0.096036851 -19.763054 58.175179
0.096032083 -19.76305 56.820606
0.096030176 -19.763046 55.466038
0.096027315 -19.763046 54.111469
0.096031129 -19.763048 52.756897
0.096029222 -19.763046 51.402313
0.096032083 -19.76305 50.047752
0.096030176 -19.763048 48.693172
0.096033037 -19.76305 47.3386
0.096031129 -19.763048 45.984032
0.09603399 -19.76305 44.629456
0.096033037 -19.76305 43.274876
0.096038759 -19.763054 41.920307
0.096033037 -19.76305 40.565735
0.096031129 -19.763048 39.211166
0.096033037 -19.76305 37.85659
0.096032083 -19.76305 36.502022
0.096030176 -19.763048 35.147442
0.096029222 -19.763046 33.792873
0.096031129 -19.763048 32.438301
0.09603399 -19.76305 31.083725
0.096033037 -19.76305 29.729158
0.096030176 -19.763048 28.374588
0.096033037 -19.76305 27.020016
0.096032083 -19.76305 25.665436
0.096034944 -19.763052 24.310862
0.096033037 -19.76305 22.956293
0.096031129 -19.763048 21.601725
0.096030176 -19.763046 20.247145
0.096032083 -19.76305 18.89257
0.09603399 -19.76305 17.538008
0.096033037 -19.76305 16.183426
0.096035898 -19.763052 14.828854
0.096033037 -19.76305 13.474285
0.096027315 -19.763046 12.119711
0.096030176 -19.763046 10.765137
0.096030176 -19.763046 9.4105568
0.096035898 -19.763054 8.0559883
0.096030176 -19.763046 6.7014236
0.096032083 -19.76305 5.3468513
0.015971124 -19.709095 3.9641685
-0.70230776 -19.225033 2.3470573
-4.3141942 -18.46727 74.166328
-2.7235813 -19.51466 72.294632
-2.7235827 -19.514658 70.915115
-2.7235799 -19.51466 69.535599
-2.7235899 -19.514652 68.156082
-2.723587 -19.514654 66.776558
-2.7235827 -19.514658 65.397049
-2.7235856 -19.514656 64.017532
-2.7235808 -19.51466 62.638008
-2.7235885 -19.514652 61.258499
-2.7235799 -19.51466 59.878975
-2.7235827 -19.514658 58.499451
-2.7235856 -19.514656 57.119942
-2.7235851 -19.514656 55.740421
-2.7235851 -19.514656 54.360909
-2.7235842 -19.514656 52.981388
-2.7235794 -19.514662 51.601871
-2.723587 -19.514654 50.222359
-2.7235823 -19.514658 48.842842
-2.7235856 -19.514656 47.463326
-2.7235842 -19.514656 46.083801
-2.7235885 -19.514652 44.704296
-2.723588 -19.514654 43.324776
-2.7235785 -19.514662 41.945251
-2.7235866 -19.514654 40.565742
-2.7235813 -19.51466 39.186226
-2.7235885 -19.514652 37.806702
-2.7235842 -19.514656 36.427185
-2.723587 -19.514654 35.047668
-2.723587 -19.514654 33.668156
-2.7235856 -19.514656 32.288635
-2.7235813 -19.51466 30.909119
-2.7235842 -19.514656 29.5296
-2.723588 -19.514654 28.150084
-2.723588 -19.514654 26.770573
-2.7235866 -19.514654 25.39105
-2.7235813 -19.51466 24.011534
-2.7235851 -19.514656 22.632017
-2.7235842 -19.514656 21.252504
-2.7235842 -19.514656 19.872982
-2.7235837 -19.514658 18.493471
-2.7235827 -19.514658 17.113949
-2.7235827 -19.514658 15.734438
-2.7235799 -19.51466 14.354916
-2.723588 -19.514654 12.975393
-2.7235837 -19.514658 11.595886
-2.7235909 -19.514652 10.216364
-2.7235823 -19.514658 8.8368549
-2.7235851 -19.514656 7.457325
-2.7235813 -19.51466 6.0778198
-2.7244372 -19.514097 4.6980057
-3.0537734 -19.297235 3.2038345
-7.0358577 -18.364777 71.874565
-7.0358601 -18.364773 70.451447
-7.0358529 -18.36478 69.028305
-7.0358577 -18.364777 67.605179
-7.03585 -18.364782 66.182045
-7.0358548 -18.364779 64.758919
-7.0358548 -18.364779 63.335785
-7.0358562 -18.364777 61.912666
-7.0358572 -18.364777 60.48954
-7.0358534 -18.364779 59.066406
-7.0358577 -18.364777 57.643276
-7.0358548 -18.364779 56.22015
-7.0358591 -18.364775 54.79702
-7.0358515 -18.36478 53.37389
-7.0358524 -18.36478 51.950768
-7.0358572 -18.364777 50.527641
-7.0358572 -18.364777 49.104507
-7.0358586 -18.364775 47.681385
-7.0358543 -18.364779 46.258247
-7.0358558 -18.364777 44.835125
-7.0358562 -18.364777 43.412003
-7.0358524 -18.36478 41.988865
-7.0358572 -18.364777 40.565735
-7.0358539 -18.364779 39.142609
-7.0358548 -18.364779 37.719486
-7.035851 -18.364782 36.296349
-7.0358553 -18.364779 34.873222
-7.035852 -18.36478 33.450096
-7.0358567 -18.364777 32.026966
-7.0353956 -18.365072 30.603878
-7.0353966 -18.365072 29.180758
-7.0353942 -18.365074 27.757641
-7.035399 -18.36507 26.334513
-7.0353909 -18.365076 24.911392
-7.0353956 -18.365072 23.488264
-7.0353932 -18.365074 22.065147
-7.035398 -18.36507 20.642019
-7.0353951 -18.365074 19.218903
-7.0353999 -18.365068 17.795776
-7.0353928 -18.365074 16.372654
-7.0353899 -18.365078 14.949537
-7.0353956 -18.365072 13.526409
-7.0353923 -18.365076 12.103294
-7.0353971 -18.36507 10.680164
-7.0353937 -18.365074 9.2570496
-7.0353937 -18.365074 7.8339157
-7.0353913 -18.365076 6.4107971
-7.0353956 -18.365072 4.9876709
-7.6222086 -17.987574 3.3694839
8.2586746 17.170835 73.990967
10.931761 16.389156 72.873383
10.548464 16.656916 71.558807
10.16008 16.928215 70.22683
9.766531 17.203129 68.877106
9.3676987 17.481733 67.50927
8.5240393 17.91778 66.068176
9.4258995 15.262488 75.283768
11.960089 14.553569 74.153671
13.851324 14.053668 73.024445
13.70203 14.230938 71.762489
13.551367 14.40985 70.4888
13.399298 14.590432 69.203262
13.239244 14.774914 67.904922
12.874575 15.02979 66.568832
12.504696 15.288157 65.215149
12.129917 15.549944 63.843582
11.750156 15.815211 62.453766
11.365303 16.084032 61.045345
10.975267 16.356476 59.617935
10.579945 16.632614 58.171146
10.179205 16.912529 56.704597
9.7729645 17.196295 55.217857
9.3610821 17.483994 53.710533
8.2020311 18.035021 52.003902
9.1297131 13.863784 76.483749
12.205276 13.008679 75.361923
13.94445 12.575384 74.217194
15.375563 12.238079 73.079803
15.235466 12.404412 71.837143
15.094088 12.572267 70.58313
14.951424 12.74166 69.317612
14.807428 12.912619 68.040413
14.662102 13.085159 66.751389
14.515427 13.259306 65.450363
14.367373 13.435083 64.137177
14.217937 13.612511 62.811649
14.066652 13.791756 61.473534
13.914371 13.972557 60.122795
13.760635 14.155082 58.759186
13.604977 14.339504 57.382435
13.44828 14.52555 55.992516
13.290062 14.713394 54.589157
12.978096 14.954457 53.135559
12.597498 15.220457 51.647533
12.211704 15.490081 50.139236
11.821077 15.763247 48.610363
11.424122 16.04051 47.060093
11.021641 16.321632 45.488228
10.613508 16.606701 43.894333
10.199606 16.895796 42.277912
9.7798195 17.188999 40.638519
9.3540306 17.486403 38.975632
7.8562331 18.160923 36.900719
8.1306152 12.68766 77.657211
11.7397 11.702627 76.525162
13.659681 11.230421 75.377106
15.229216 10.863209 74.240562
16.554581 10.569132 73.112183
16.659964 10.651894 71.904396
16.59071 10.789607 70.674637
16.456936 10.9484 69.428528
16.321955 11.108637 68.171097
16.185743 11.270333 66.902191
16.048281 11.433511 65.621658
15.909555 11.598192 64.329338
15.769552 11.764398 63.025059
15.628231 11.93215 61.708656
15.485598 12.101465 60.379963
15.341637 12.272368 59.038811
15.196302 12.444885 57.685013
15.04961 12.619034 56.31839
14.901505 12.794842 54.938766
14.751989 12.972328 53.545959
14.60104 13.15152 52.139771
14.448185 13.332587 50.719887
14.294291 13.515267 49.286346
14.138905 13.699725 47.838833
13.981546 13.886138 46.377007
13.82308 14.07424 44.900921
13.663061 14.2642 43.410236
13.50098 14.456203 41.904575
13.337751 14.649971 40.384022
13.087963 14.874323 38.817299
12.695984 15.148423 37.179951
12.297989 15.426548 35.519363
11.894369 15.708613 33.835213
11.485455 15.994545 32.127197
11.070175 16.284758 30.394409
10.649372 16.579008 28.636719
10.22192 16.877726 26.853146
9.787672 17.181017 25.043106
9.3464661 17.488983 23.205969
7.4839244 18.296478 20.639093
5.2186627 12.063074 78.802383
10.698929 10.569105 77.66893
13.054829 9.9875364 76.518066
14.933176 9.5435734 75.384811
16.344002 9.23559 74.254982
17.351597 9.045763 73.118469
17.359917 9.1535101 71.913422
17.298775 9.2828102 70.694099
17.237572 9.4129925 69.465363
17.175482 9.5443077 68.227036
17.112909 9.676651 66.979019
17.050259 9.8099051 65.721275
16.986691 9.9443369 64.453575
16.923048 10.0797 63.175926
16.858887 10.216141 61.888142
16.794228 10.353663 60.590107
16.729044 10.492288 59.281704
16.663338 10.632025 57.962791
16.596684 10.773019 56.633156
16.46195 10.936256 55.277309
16.322115 11.102224 53.907848
16.18096 11.269763 52.525444
16.038456 11.43889 51.129906
15.894602 11.609633 49.721054
15.749355 11.782017 48.298683
15.602718 11.956059 46.862598
15.454666 12.131784 45.412617
15.305162 12.309225 43.948517
15.154205 12.488398 42.4701
15.001762 12.669332 40.977158
14.847345 12.852201 39.469303
14.691874 13.036736 37.946648
14.534836 13.223115 36.408798
14.375772 13.41151 34.855358
14.215563 13.601653 33.286438
14.053738 13.79372 31.701639
13.889788 13.987902 30.100487
13.72463 14.18391 28.483177
13.557783 14.381935 26.849236
13.388731 14.582168 25.19817
13.20579 14.788567 23.523926
12.800726 15.071615 21.719578
12.390247 15.358621 19.8892
11.973251 15.650006 18.0317
11.550083 15.945702 16.146715
11.12112 16.24563 14.233934
10.685204 16.550238 12.292162
10.243214 16.85927 10.321321
9.7939701 17.173193 8.3201485
9.3383617 17.491751 6.288559
8.813364 9.6631975 78.805099
12.034643 8.8618822 77.646942
14.29627 8.3277998 76.509537
15.754246 8.0191364 75.371033
16.956289 7.7815828 74.239822
17.952393 7.6015158 73.111542
18.049467 7.6788607 71.922379
17.991865 7.8013606 70.712921
17.933413 7.9249172 69.494125
17.874912 8.0493097 68.265976
17.815556 8.1747837 67.028259
17.756134 8.3011169 65.780983
17.695858 8.4285526 64.523895
17.635099 8.5569878 63.256966
17.574274 8.6863136 61.980133
17.51256 8.816781 60.693142
17.45076 8.9481621 59.396027
17.388062 9.0807142 58.088501
17.325281 9.2141981 56.770607
17.261572 9.3488808 55.442047
17.197771 9.4845209 54.102882
17.133039 9.6213846 52.752777
17.067776 9.7593613 51.391701
17.002403 9.8983345 50.019638
16.936073 10.038576 48.636215
16.869623 10.17984 47.241547
16.802195 10.322403 45.835228
16.734636 10.466015 44.417393
16.666521 10.610821 42.987747
16.597836 10.756838 41.546158
16.467331 10.923208 40.070198
16.322281 11.095333 38.575157
16.175806 11.269151 37.065456
16.027887 11.444678 35.540871
15.878506 11.621946 34.001175
15.727629 11.80098 32.446152
15.575251 11.981806 30.875559
15.421333 12.164451 29.289173
15.265394 12.349091 27.686527
15.108347 12.535457 26.067812
14.94969 12.723727 24.432562
14.788933 12.914083 22.780294
14.626984 13.106251 21.11121
14.463366 13.300409 19.424814
14.297554 13.496754 17.720562
14.130489 13.694995 15.998716
13.961664 13.895325 14.258732
13.790556 14.097942 12.500021
13.61813 14.302549 10.722881
13.443352 14.509516 8.9263973
13.267199 14.718545 7.1108932
12.91342 14.989178 5.1610909
3.6252885 9.6184244 79.934952
10.361908 7.9027348 78.771317
13.15666 7.2474151 77.62011
14.937628 6.8643003 76.478058
16.376495 6.5722871 75.348068
17.560152 6.348412 74.224915
18.544987 6.1778245 73.104736
18.728464 6.2275219 71.931213
18.673498 6.3436451 70.7314
18.618509 6.4605422 69.522469
18.562704 6.5784459 68.304245
18.506861 6.6971455 67.076714
18.450205 6.8168678 65.839653
18.39349 6.9374084 64.593079
18.335939 7.0589995 63.336754
18.277946 7.1815376 62.070618
18.219898 7.3049221 60.794636
18.160994 7.4293919 59.508541
18.10203 7.5547285 58.212372
18.042181 7.6811762 56.905853
17.982277 7.8085098 55.58902
17.921474 7.9369822 54.26157
17.860605 8.0663643 52.923569
17.798819 8.1969099 51.574699
17.736958 8.3283882 50.215015
17.674179 8.4610586 48.844185
17.611303 8.5946856 47.462296
17.547489 8.7295322 46.068974
17.48315 8.8654881 44.664185
17.418713 9.0024376 43.24794
17.35331 9.1406498 41.81982
17.287794 9.2798843 40.379959
17.221296 9.420414 38.92791
17.154242 9.5621214 37.463665
17.087053 9.7048922 35.987255
17.01886 9.8490047 34.498169
16.950531 9.9942064 32.99662
16.881176 10.140783 31.482054
16.81122 10.288618 29.954498
16.741121 10.437588 28.414001
16.66995 10.587983 26.859968
16.598631 10.739544 25.292671
16.473129 10.909148 23.684446
16.322462 11.087907 22.048073
16.170256 11.268488 20.395014
16.016483 11.450922 18.725014
15.861135 11.635233 17.037811
15.703695 11.821605 15.332867
15.545109 12.009764 13.610449
15.384851 12.199892 11.870007
15.222425 12.392177 10.110958
15.058769 12.586338 8.3336067
14.893366 12.782562 6.5373573
14.725222 12.981205 4.7212601
13.598604 13.494651 2.233532
7.2597747 7.2881384 79.902367
11.530127 6.2802978 78.731689
13.818289 5.7826948 77.580505
15.570385 5.4220719 76.447083
16.990108 5.1463141 75.325455
18.142122 4.9392328 74.209396
19.028744 4.8008881 73.090721
19.010532 4.9013982 71.907623
18.991781 5.0027108 70.716309
18.97331 5.1046219 69.516747
18.954702 5.207243 68.308823
18.935572 5.3106885 67.0924
18.916695 5.4147558 65.867477
18.897692 5.5195556 64.633926
18.878164 5.6252007 63.39159
18.858881 5.731493 62.140503
18.83947 5.8385396 60.880493
18.819515 5.9464617 59.611423
18.799822 6.055048 58.333309
18.74766 6.1733322 57.038956
18.690628 6.2937775 55.733463
18.633549 6.4150639 54.417725
18.575596 6.5374303 53.091415
18.517607 6.6606584 51.754616
18.458731 6.7849903 50.406998
18.399801 6.9102054 49.048637
18.339975 7.0365515 47.679176
18.280085 7.1638041 46.298729
18.219288 7.2922125 44.906895
18.157986 7.4216752 43.503662
18.096613 7.5520763 42.089058
18.034296 7.6836782 40.662624
17.971899 7.8162475 39.224522
17.908548 7.9500418 37.774311
17.845108 8.0848293 36.312138
17.780695 8.2208738 34.837532
17.716177 8.3579388 33.350681
17.650682 8.4962864 31.851072
17.584618 8.6358156 30.338709
17.518446 8.7764015 28.813641
17.45125 8.9183254 27.275314
17.383928 9.0613384 25.723942
17.315573 9.2057199 24.158957
17.246626 9.3513546 22.580372
17.177536 9.4981232 20.988258
17.10738 9.6463156 19.381973
17.03706 9.7956734 17.761797
16.965668 9.9464874 16.127062
16.893639 10.098642 14.477819
16.821434 10.252008 12.814148
16.74811 10.406895 11.135294
16.674604 10.563026 9.4416428
16.599958 10.720714 7.7323914
16.479406 10.893952 5.9775009
16.27565 11.094607 4.1493492
8.7579441 5.5727229 79.851364
12.239315 4.8026538 78.683929
14.468832 4.3401022 77.541443
16.078869 4.0296884 76.411766
17.321127 3.8096609 75.288895
18.341398 3.6441522 74.170593
19.257959 3.5037889 73.05864
19.24021 3.599546 71.880051
19.222723 3.6958666 70.693375
19.205111 3.7928538 69.498474
19.187389 3.8905129 68.295273
19.169531 3.9888544 67.083702
19.151157 4.0879846 65.863602
19.133062 4.1877079 64.634979
19.114826 4.2881341 63.397709
19.096472 4.3892689 62.151699
19.077972 4.4911242 60.896847
19.058943 4.5938072 59.632996
19.04019 4.6971183 58.360184
19.021297 4.8011708 57.078247
19.001867 4.9060779 55.786999
18.982697 5.0116363 54.486515
18.962986 5.1180668 53.176514
18.943541 5.2251635 51.857071
18.92395 5.3330426 50.528004
18.903801 5.4418216 49.189087
18.883923 5.5512896 47.840431
18.863901 5.6615667 46.481819
18.843309 5.7727723 45.113014
18.822983 5.8846927 43.734165
18.8025 5.9974499 42.34502
18.768412 6.1147547 40.940586
18.709143 6.2398562 39.515873
18.649811 6.3658724 38.079567
18.589554 6.4930515 36.631207
18.529238 6.6211667 35.170967
18.467974 6.750474 33.698364
18.406641 6.880743 32.213585
18.344347 7.0122318 30.716129
18.281969 7.1447086 29.206196
18.218613 7.2784371 27.683239
18.155169 7.4131794 26.147499
18.090727 7.549202 24.598396
18.02574 7.6863942 23.035965
17.960642 7.8246431 21.460253
17.894518 7.9642229 19.870647
17.828281 8.104887 18.267426
17.761007 8.246913 16.649925
17.693594 8.3900566 15.018457
17.625132 8.5345974 13.372324
17.556059 8.6804199 11.711584
17.48683 8.8274069 10.036327
17.416519 8.9758453 8.3457985
17.345583 9.1256189 6.6400566
17.274467 9.2766047 4.919239
16.872162 9.5284815 2.9530411
3.1500745 4.4737015 94.649071
2.9289098 4.6133642 93.469086
2.7060704 4.7542753 92.277573
2.4829926 4.8961191 91.074234
2.2572379 5.0394664 89.859146
4.0025287 4.7267089 88.515823
1.8439174 5.3199782 87.390671
9.6587029 4.0366278 79.795563
12.875687 3.3626411 78.63559
14.796648 2.9935126 77.493027
16.306448 2.7204108 76.365311
17.533232 2.5134959 75.24659
18.539221 2.3584261 74.13208
19.484995 2.216898 73.026779
19.468472 2.3077798 71.85273
19.451838 2.3992853 70.670609
19.435099 2.4914207 69.480339
19.418238 2.5841937 68.281837
19.401247 2.6776123 67.07502
19.38376 2.7717757 65.859741
19.366541 2.8665013 64.636024
19.349195 2.9618931 63.403725
19.331739 3.0579534 62.162743
19.313761 3.1547928 60.912922
19.296038 3.2522211 59.654316
19.278202 3.3503401 58.386765
19.260237 3.4491608 57.110146
19.242149 3.548687 55.824402
19.223516 3.6490338 54.529301
19.205158 3.7500029 53.224945
19.186665 3.8517015 51.911163
19.168047 3.9541397 50.587811
19.148876 4.0574312 49.254692
19.129976 4.1613731 47.911926
19.110939 4.266078 46.559299
19.091345 4.371664 45.196552
19.07202 4.4779248 43.823845
19.052557 4.5849733 42.440952
19.03253 4.6929307 41.047585
19.01277 4.8015862 39.643929
18.992855 4.9110603 38.229729
18.972378 5.0214701 36.804691
18.952162 5.1326046 35.369034
18.931797 5.2445841 33.922459
18.910843 5.3575325 32.464661
18.890165 5.4712305 30.995882
18.869329 5.5858021 29.515816
18.847895 5.7013769 28.024107
18.826731 5.8177299 26.521053
18.804968 5.9351058 25.006086
18.783464 6.0532784 23.479511
18.729673 6.1812415 21.923773
18.667463 6.3124914 20.350498
18.605154 6.4447532 18.763878
18.541862 6.5782852 17.163261
18.478014 6.7129822 15.548677
18.414057 6.848731 13.920244
18.349102 6.9857965 12.277227
18.284006 7.1239471 10.619993
18.217894 7.2634492 8.9477882
18.151178 7.4041977 7.2606621
18.084337 7.5460711 5.5587654
17.920555 7.7169294 3.7747116
16.0972 8.3683662 0.79540634
4.5700994 2.8381634 94.405991
4.5195508 2.9330227 93.22464
4.46913 3.0284419 92.034958
4.4183335 3.1245348 90.836914
4.3667235 3.2214062 89.630463
5.6693778 3.0193508 88.336555
4.0939784 3.4545813 87.200012
4.0114923 3.5602763 85.967148
3.9283586 3.6667802 84.724869
3.8450789 3.7739913 83.473061
3.760675 3.8821349 82.211624
3.6654229 3.9934139 80.940445
10.365381 2.5688643 79.738716
13.155794 2.0220511 78.580322
15.04072 1.6777874 77.442444
16.532295 1.4211093 76.319199
17.738306 1.2281777 75.2043
18.735247 1.0820352 74.093826
19.709896 0.94008219 72.995148
19.694963 1.0260817 71.825615
19.679174 1.1128446 70.648026
19.663261 1.200204 69.462349
19.647261 1.2881624 68.268509
19.630745 1.3768231 67.06636
19.614515 1.466005 65.855919
19.598162 1.5558101 64.637054
19.581697 1.6462423 63.409679
19.565123 1.7373072 62.173691
19.548038 1.8291065 60.928936
19.531225 1.9214603 59.675476
19.514288 2.0144691 58.413116
19.497238 2.1081383 57.141796
19.480062 2.2024765 55.861397
19.462368 2.2975874 54.571728
19.444944 2.3932843 53.272888
19.427391 2.4896712 51.964687
19.409712 2.5867572 50.647007
19.391912 2.6845467 49.319763
19.373564 2.7831519 47.982712
19.355501 2.8823752 46.635994
19.337301 2.9823291 45.279396
19.31896 3.0830207 43.912781
19.300488 3.1844566 42.53606
19.281467 3.2867501 41.148964
19.262724 3.3897011 39.751675
19.243834 3.4934232 38.343937
19.224382 3.5980296 36.925457
19.20521 3.7033195 35.496437
19.185896 3.8094044 34.05661
19.165993 3.9164076 32.605656
19.146381 4.0241146 31.143826
19.12661 4.1326475 29.670801
19.106264 4.2421246 28.186249
19.086185 4.3523359 26.690449
19.065527 4.4635129 25.182858
19.045132 4.5754423 23.66375
19.024584 4.6882434 22.132797
19.003441 4.8020439 20.589607
18.982567 4.9166241 19.034515
18.961527 5.0321107 17.467136
18.939878 5.1486292 15.887079
18.918505 5.2659559 14.294703
18.896961 5.384222 12.6896
18.874783 5.5035596 11.071327
18.852886 5.623735 9.4403133
18.830816 5.7448816 7.7961082
18.808105 5.8671379 6.1382256
18.777891 5.9923997 4.4617462
18.157267 6.281208 2.3531685
5.1626039 1.3297204 95.424393
5.1434417 1.4124781 94.254776
5.1246133 1.4956754 93.077545
5.1051879 1.5795101 91.892731
5.0861068 1.663793 90.70015
5.0669055 1.7486256 89.499802
6.4373994 1.5414072 88.211533
4.939755 1.938624 87.079666
4.9020162 2.0290439 85.855316
4.8635592 2.1201856 84.622528
4.8252978 2.2118616 83.38118
4.7862935 2.304276 82.131187
4.7470241 2.3973351 80.872482
10.723692 1.1961688 79.678589
13.420673 0.69546902 78.52523
15.283276 0.3722955 77.392273
16.756025 0.13175975 76.273438
17.912838 -0.041451827 75.160774
18.866482 -0.17134751 74.051765
19.605736 -0.25504625 72.939316
19.611717 -0.17786492 71.772446
19.618111 -0.10026969 70.598106
19.624563 -0.022177592 69.416199
19.631422 0.056336984 68.226692
19.637949 0.13544475 67.029434
19.644129 0.21515332 65.824326
19.650352 0.29538405 64.611336
19.656616 0.37613976 63.390408
19.66292 0.4574281 62.16143
19.66927 0.53925145 60.924347
19.675661 0.62161696 59.679073
19.682089 0.70453036 58.425526
19.68856 0.78799713 57.163616
19.695477 0.87193024 55.893353
19.699265 0.95715725 54.613819
19.682756 1.0476671 53.320442
19.666136 1.1388255 52.017784
19.649384 1.2306432 50.705719
19.632126 1.3232168 49.384056
19.615133 1.4163698 48.05291
19.598026 1.5101999 46.712063
19.58079 1.6047181 45.361401
19.563425 1.6999291 44.000828
19.545519 1.795941 42.630089
19.527899 1.8925639 41.249348
19.510139 1.9899055 39.858356
19.492258 2.08797 38.457008
19.474234 2.1867695 37.045181
19.456079 2.2863097 35.622753
19.437372 2.3867021 34.189423
19.41894 2.487752 32.74543
19.40037 2.5895689 31.29048
19.381653 2.6921625 29.824432
19.362366 2.7956462 28.346973
19.343363 2.8998182 26.858368
19.323784 3.0049007 25.358059
19.304485 3.1106889 23.846367
19.285036 3.2173002 22.32292
19.264996 3.3248529 20.787348
19.245241 3.4331355 19.240005
19.225328 3.5422719 17.680485
19.204823 3.65238 16.108398
19.184591 3.7632489 14.524117
19.164198 3.875 12.927229
19.143198 3.9877591 11.317305
19.122477 4.1013055 9.6947651
19.101599 4.2157664 8.0591393
19.080084 4.3312721 6.409996
19.058847 4.4475975 4.7477684
18.734102 4.6443443 2.8573341
5.3093562 0.0088797659 95.315979
5.3121371 0.08293353 94.147171
5.3149257 0.15744029 92.97123
5.3177476 0.23240028 91.788086
5.3205724 0.30782282 90.597687
5.3234277 0.38370812 89.399948
6.7929826 0.16682993 88.111267
5.246037 0.55356491 86.98613
5.2346997 0.63378799 85.765701
5.2228189 0.71462429 84.537384
5.2113357 0.79589069 83.301086
5.1997666 0.87768662 82.056755
5.1881204 0.96001756 80.804276
10.994217 -0.14616551 79.617981
13.514368 -0.58568037 78.46669
15.28125 -0.87306941 77.334427
16.682497 -1.0868555 76.215118
17.805965 -1.2445153 75.102386
18.752865 -1.3665239 73.994217
19.502131 -1.448145 72.883621
19.50778 -1.374854 71.717606
19.513453 -1.3010896 70.544098
19.519182 -1.2268537 69.363022
19.52532 -1.1522154 68.174362
19.531107 -1.0770119 66.977943
19.536942 -1.0013202 65.773743
19.542803 -0.92513311 64.561676
19.549105 -0.8485316 63.341728
19.555044 -0.77134097 62.113701
19.561024 -0.69364178 60.877579
19.567446 -0.6155144 59.633354
19.573511 -0.53678334 58.380798
19.580017 -0.4576143 57.119984
19.586163 -0.37782943 55.850662
19.59235 -0.29750955 54.57283
19.598984 -0.21673788 53.286503
19.605259 -0.135332 51.99139
19.611977 -0.053463832 50.687618
19.619143 0.028869972 49.375118
19.625551 0.1119443 48.05344
19.632412 0.19549595 46.722839
19.638901 0.27971423 45.382984
19.645447 0.36451089 44.033897
19.652035 0.44989312 42.675488
19.65867 0.53586876 41.307644
19.66576 0.62234962 39.930431
19.672491 0.70952666 38.543465
19.679264 0.79731715 37.146755
19.68609 0.88572323 35.740234
19.686695 0.9762007 34.321095
19.669277 1.0715052 32.883816
19.651733 1.1675292 31.435677
19.634052 1.2642828 29.976543
19.615824 1.3618704 28.50609
19.597868 1.4601072 27.024593
19.579777 1.5590984 25.531727
19.561552 1.6588503 24.027361
19.543175 1.7593755 22.511362
19.524235 1.8607827 20.983351
19.505579 1.9628774 19.443665
19.486773 2.0657721 17.891922
19.467386 2.1695795 16.327734
19.44828 2.2741022 14.751455
19.429029 2.3794498 13.162706
19.409174 2.4857452 11.561049
19.389608 2.5927811 9.9468689
19.369896 2.7006721 8.3197632
19.349562 2.8095446 6.6792641
19.329515 2.9191852 5.0258141
19.116436 3.0776803 3.2226181
5.1563621 -1.2487558 95.242142
5.1764503 -1.1818773 94.071831
5.197124 -1.1146969 92.894669
5.2174554 -1.0470392 91.710701
5.2379069 -0.97898591 90.519806
5.2589364 -0.91062081 89.321915
6.6843705 -1.1077691 88.037888
5.1988473 -0.75320899 86.909714
5.2078605 -0.68120658 85.689972
5.2164598 -0.60867417 84.462769
5.225121 -0.5356971 83.228027
5.2338319 -0.46226823 81.985649
5.2430625 -0.38847554 80.735588
10.9897 -1.424805 79.554214
13.458057 -1.831139 78.404953
15.207245 -2.0999706 77.274353
16.585886 -2.2981091 76.155914
17.699652 -2.4455905 75.044121
18.639425 -2.5598006 73.936768
19.398346 -2.6390626 72.827988
19.40365 -2.5696452 71.662834
19.409369 -2.4998572 70.490219
19.414747 -2.4295461 69.310028
19.42016 -2.3587801 68.122215
19.425604 -2.2875547 66.926697
19.431467 -2.2159438 65.723465
19.436987 -2.1437883 64.512329
19.442541 -2.0711606 63.293266
19.448132 -1.9980553 62.0662
19.454155 -1.9245495 60.831112
19.459816 -1.8504769 59.587799
19.465523 -1.7759136 58.336243
19.471272 -1.7008544 57.076344
19.477444 -1.6253749 55.808136
19.483267 -1.5493089 54.531342
19.48912 -1.4727303 53.245964
19.495024 -1.3956364 51.951927
19.501358 -1.3181037 50.649235
19.507341 -1.2399617 49.337589
19.513765 -1.1613716 48.017132
19.519827 -1.0821594 46.687531
19.52635 -1.0024921 45.348946
19.532495 -0.92218745 44.001011
19.538679 -0.84132755 42.643764
19.545322 -0.75999653 41.277267
19.551605 -0.67801273 39.901123
19.55834 -0.59554493 38.515526
19.564711 -0.512411 37.120071
19.571543 -0.42878306 35.714981
19.577995 -0.344473 34.299812
19.584929 -0.25966084 32.874817
19.591476 -0.17415203 31.439507
19.598078 -0.088034526 29.993973
19.605572 -0.0014892966 28.538506
19.612265 0.085866556 27.072189
19.619017 0.17384993 25.595314
19.626236 0.26237524 24.107973
19.633085 0.3516382 22.609615
19.639982 0.4415518 21.100346
19.646923 0.53212321 19.58004
19.654356 0.62325943 18.04884
19.661404 0.71516669 16.506107
19.668509 0.80775261 14.951969
19.675665 0.90102494 13.386311
19.672743 0.99733245 11.802586
19.65431 1.0979693 10.196697
19.635735 1.1994066 8.5780258
19.616562 1.3017626 6.9460678
19.597689 1.4048352 5.3012962
19.463381 1.5358829 3.5618553
18.311718 1.9084035 1.0720596
4.7152877 -2.454565 95.200928
4.7529349 -2.3943739 94.026398
4.791244 -2.3339314 92.845345
4.829308 -2.2730732 91.657806
4.8514161 -2.2090044 90.46489
4.871346 -2.1441507 89.265182
6.2029672 -2.3134644 87.985413
4.8495984 -2.002182 86.847382
4.875771 -1.9371997 85.625488
4.9021115 -1.8718406 84.396484
4.9281335 -1.8060133 83.160286
4.954783 -1.739885 81.916809
4.9815784 -1.6733657 80.666016
10.984352 -2.6988192 79.490662
13.401485 -3.0732644 78.343353
15.13341 -3.3240447 77.214417
16.488686 -3.506918 76.096779
17.593142 -3.6445279 74.985931
18.526157 -3.7511814 73.879402
19.295113 -3.8279529 72.772484
19.300083 -3.7623973 71.608177
19.305088 -3.6964226 70.436401
19.310123 -3.6300225 69.257095
19.315577 -3.563267 68.070213
19.320677 -3.4960053 66.875595
19.325811 -3.4283078 65.673225
19.330986 -3.3601696 64.46302
19.336569 -3.2916574 63.244953
19.34181 -3.2226238 62.018841
19.347084 -3.1531351 60.784657
19.35239 -3.0831876 59.542328
19.358128 -3.0128524 58.29184
19.363503 -2.9419732 57.032967
19.368919 -2.8706219 55.765694
19.374376 -2.7987933 54.489937
19.380259 -2.7265599 53.205715
19.385788 -2.6537621 51.912743
19.39135 -2.5804713 50.611031
19.397358 -2.5067644 49.300606
19.403 -2.4324751 47.981148
19.408676 -2.3576784 46.652679
19.414391 -2.2823677 45.315094
19.420559 -2.2066238 43.968468
19.426363 -2.1302748 42.612404
19.432199 -2.0533957 41.246956
19.438078 -1.9759822 39.872005
19.444416 -1.8981154 38.487648
19.45038 -1.8196175 37.093433
19.456804 -1.7406553 35.68961
19.462852 -1.6610496 34.275719
19.469358 -1.5809683 32.852024
19.4755 -1.5002327 31.418037
19.482098 -1.4190086 29.974039
