# .PCD v0.7 - Point Cloud Data file format
VERSION 0.7
FIELDS x y z
SIZE 4 4 4
TYPE F F F
COUNT 1 1 1
WIDTH 1601
HEIGHT 1
VIEWPOINT 0 0 0 1 0 0 0
POINTS 1601
DATA ascii
5.1344352 6.0990858 0.61392164
5.0167913 6.1895189 0.38415909
4.8906231 6.2467928 0.15252924
6.5952954 3.5926309 3.3870602
6.5365176 4.0696831 3.121686
6.4447293 4.3647552 2.8651409
6.3463612 4.6141505 2.6136532
6.2497787 4.8590217 2.3667302
6.1432877 5.048296 2.1227965
6.030735 5.202486 1.8810716
5.9194822 5.3548961 1.642138
5.8095312 5.5056534 1.4059539
5.7000608 5.6515903 1.1722627
5.5799761 5.7495809 0.93770075
5.4607682 5.8467388 0.70489311
5.3424544 5.9431677 0.47383165
5.2250237 6.0388794 0.24449301
6.6196628 3.1598079 2.9800625
6.5844522 3.7723527 2.7193418
6.5192032 4.2066312 2.4673462
6.4199066 4.4577775 2.2189894
6.3224583 4.7045665 1.975153
6.2267675 4.9469118 1.7357101
6.1146879 5.1059265 1.4964328
6.0029593 5.2588825 1.2597384
5.8925133 5.4100828 1.0257602
5.7833285 5.559556 0.79445457
5.6708398 5.6892638 0.5641613
5.5514832 5.7866096 0.33309078
6.6331329 3.4711442 2.3113008
6.5738258 3.9484749 2.0649962
6.4937553 4.3007612 1.8227034
6.3954344 4.5494852 1.5819788
6.298892 4.7937183 1.3456035
6.1986065 5.0092816 1.1118469
6.0864239 5.1628828 0.87739611
5.9755068 5.3146229 0.64563084
5.8658576 5.4646325 0.41651106
5.7574506 5.6129365 0.18999147
6.5610666 2.5379474 1.875854
6.6219397 3.651536 1.6564817
6.5634537 4.1213198 1.4236331
6.4687099 4.3937688 1.1872005
6.3713074 4.639904 0.95391798
6.2756519 4.8816252 0.72481823
6.1698542 5.0668006 0.49510336
6.058466 5.21908 0.26554775
6.6707339 3.3504076 1.2422042
6.6109939 3.8284373 1.0147443
6.542284 4.2374139 0.79080439
6.4440184 4.485466 0.56064367
6.347517 4.7290621 0.33461666
6.6592212 3.5315728 0.60015059
6.6002412 4.0017338 0.38568592
6.517045 4.3305068 0.16578007
4.2960877 3.8861067 20.55872
4.5171795 4.3475609 18.855867
4.3557596 3.8173246 19.762699
4.0874329 4.0729709 19.90251
3.8706684 4.1882915 20.125145
3.6726363 4.2525187 20.37801
4.5809617 4.2638931 18.0881
4.3137074 4.5166574 18.236637
4.0899868 4.6569042 18.444794
3.8879635 4.740572 18.683262
3.7001777 4.7861209 18.942781
3.7116232 4.2455435 19.558819
3.5286148 4.2689395 19.836403
3.3518102 4.2742262 20.124916
3.182982 4.2547817 20.429193
4.6445436 4.1805501 17.322138
4.3597031 4.4811373 17.45211
4.1295424 4.6402426 17.653248
3.9281318 4.7236576 17.893297
3.7367456 4.7812223 18.146292
3.557579 4.8050275 18.417645
3.3827753 4.8166785 18.695671
3.3881953 4.2784638 19.3041
3.2201765 4.2589879 19.606529
3.0576787 4.2211776 19.920782
2.9006648 4.1640191 20.248095
4.7079229 4.0975351 16.557987
4.4053826 4.4459486 16.672146
4.1687694 4.6238189 16.867386
3.9679668 4.7069821 17.10899
3.7730145 4.7763658 17.35627
3.5945446 4.800077 17.62722
3.4172139 4.82129 17.899071
3.2542193 4.799727 18.194927
3.0909626 4.7781272 18.491257
2.9360065 4.7294021 18.804129
2.9364061 4.1772184 19.421818
2.7865977 4.0969181 19.761469
2.6413004 3.9979935 20.114454
2.5098476 3.8471351 20.50252
4.7120352 4.1725693 15.721774
4.450839 4.4108458 15.896823
4.2133303 4.5919876 16.094818
4.007515 4.6904297 16.330341
3.8089924 4.7715468 16.572638
3.6312523 4.7950521 16.843243
3.4538996 4.8182812 17.113503
3.2891378 4.8042774 17.403456
3.126626 4.7827787 17.697849
2.9695117 4.7434282 18.00275
2.8190422 4.6811237 18.321655
2.6683807 4.6168709 18.643009
2.6753016 4.0221453 19.281307
2.5412745 3.8839364 19.655743
2.4198825 3.6954222 20.064083
2.3325582 3.3765435 20.558075
5.8141079 4.9042168 12.36586
5.5724001 5.0795021 12.581974
5.3379374 5.2426023 12.798997
5.1801863 5.2223382 13.08356
5.0221019 5.2022681 13.368471
4.8638201 5.1820569 13.65386
4.7052975 5.1618137 13.939689
4.5465298 5.1415381 14.225956
4.3979363 5.093502 14.52485
4.2587657 5.0183167 14.836969
4.1188035 4.9427032 15.150864
3.9780421 4.8666601 15.466549
3.8364749 4.7901835 15.78404
3.6676645 4.7900648 16.065567
3.4909928 4.8132062 16.335411
3.3237505 4.8087897 16.618906
3.1619396 4.7875061 16.911324
3.0026629 4.7574363 17.208878
2.8529825 4.6954594 17.524441
2.7026474 4.6330781 17.841526
2.5621343 4.5353436 18.179913
2.4231615 4.4281731 18.525791
2.2921023 4.2887845 18.892811
2.3471906 3.4811254 19.661715
5.9465122 5.0430198 11.287605
5.5834131 5.5033212 11.414629
5.3455415 5.6796894 11.62791
5.1108646 5.8536906 11.838324
4.9260592 5.9108534 12.086996
4.7916121 5.8444948 12.38006
4.6581273 5.7735987 12.676237
4.5238662 5.7024193 12.974001
4.3889022 5.6307373 13.273458
4.2531486 5.5587692 13.574532
4.116641 5.4863977 13.877277
3.9797335 5.4126296 14.182143
3.8556867 5.3003559 14.505578
3.7305703 5.1871157 14.831799
3.604373 5.0728941 15.160841
3.4770784 4.9576812 15.492743
3.3562913 4.8185859 15.838612
3.196945 4.7921896 16.13166
3.0356507 4.7708511 16.422705
2.8866408 4.7095456 16.734797
2.7370918 4.6474905 17.048565
2.594311 4.5604129 17.377048
2.4561427 4.4540105 17.717922
2.3220778 4.3287897 18.071507
2.1972914 4.1652017 18.449492
2.0810966 3.9631088 18.853157
5.9777679 5.0264864 10.548546
5.6093082 5.4996967 10.683635
5.3708963 5.6785111 10.900011
5.1370106 5.8518076 11.11443
4.9150062 6.0013542 11.333088
4.7257457 6.074276 11.574747
4.5375195 6.1468849 11.814998
4.3804998 6.1418915 12.081801
4.2479587 6.073019 12.372477
4.1174841 5.9964085 12.667542
3.9972956 5.8895445 12.976091
3.8760624 5.7818899 13.287184
3.753809 5.6733327 13.600891
3.6305606 5.5637484 13.917295
3.5062273 5.4533429 14.23634
3.3849483 5.3299246 14.563469
3.2713866 5.1787968 14.905788
3.1565118 5.0259194 15.252069
3.0402999 4.8712635 15.602379
2.9199827 4.7234974 15.952558
2.7712126 4.6617661 16.263054
2.6261587 4.5852275 16.582352
2.4888213 4.479465 16.918373
2.3517871 4.3681087 17.259552
2.2278123 4.2059183 17.630432
2.1066942 4.0261655 18.014332
2.0029507 3.7742181 18.442362
1.9337863 3.3801928 18.956608
6.0088029 5.0100713 9.8147154
5.6411204 5.4818172 9.9623861
5.3960876 5.6772346 10.178124
5.1629868 5.8498335 10.396477
4.9382505 6.0072737 10.615835
4.7497101 6.0799618 10.85844
4.5622778 6.1521358 11.099704
4.3758631 6.2240047 11.339573
4.1929841 6.2890196 11.580309
4.029388 6.3052969 11.836966
3.8954692 6.2425256 12.12211
3.775986 6.1382513 12.424122
3.6555147 6.0331168 12.728629
3.5340464 5.9271097 13.03566
3.4123061 5.8180943 13.346111
3.301486 5.6731524 13.673788
3.189414 5.5265732 14.005167
3.0760677 5.3783283 14.340315
2.9614604 5.2282753 14.679346
2.8552408 5.0458612 15.03631
2.7523754 4.8453498 15.405533
2.6489701 4.6384158 15.781987
2.5211673 4.5046616 16.126942
2.3835819 4.3987093 16.460785
2.2580254 4.2460575 16.820631
2.1335204 4.0828476 17.18914
2.0291877 3.8384128 17.604122
1.9481025 3.4955664 18.077412
6.0396194 4.9937706 9.0860577
5.6727114 5.4640646 9.2461281
5.4210253 5.6760778 9.4621124
5.1887074 5.8479834 9.6843252
4.9612932 6.0131388 9.9048414
4.7735076 6.0854959 10.1484
4.586822 6.15734 10.390617
4.4011445 6.2288857 10.631442
4.2165084 6.3000293 10.870916
4.0534892 6.3166323 11.126722
3.8908362 6.3328075 11.382329
3.7283914 6.3489618 11.637609
3.566155 6.3650951 11.892561
3.4409919 6.277482 12.185327
3.330245 6.1454802 12.49668
3.2208416 6.004797 12.814131
3.1102583 5.862443 13.135153
2.9984376 5.7184958 13.459764
2.8853259 5.5730391 13.787981
2.7786837 5.4015846 14.130373
2.6770606 5.207242 14.486374
2.57392 5.0099945 14.847696
2.4771788 4.7832332 15.226688
2.389935 4.5145402 15.630107
2.2879009 4.285748 16.019871
2.1642385 4.1238103 16.3815
2.054987 3.9021533 16.776443
1.9623873 3.6083074 17.212944
6.0702686 4.9774728 8.3625431
5.7040849 5.4464326 8.5348063
5.4457612 5.6749306 8.751936
5.21422 5.8461466 8.9779387
4.9856324 6.0153227 9.2009239
4.7970972 6.0909829 9.4445152
4.6111126 6.1626034 9.6876316
4.426208 6.2337227 9.9294138
4.2422953 6.3045464 10.16982
4.0773716 6.3278637 10.422956
3.9154441 6.3439598 10.677847
3.7537234 6.360033 10.932412
3.5922091 6.3760858 11.186653
3.4308994 6.3921194 11.440572
3.2827587 6.3711414 11.707118
3.1429448 6.3252306 11.983078
3.0337443 6.1871047 12.294165
2.9233787 6.0473585 12.608706
2.8117931 5.9060659 12.926727
2.7047565 5.7450867 13.255559
2.6043525 5.5566106 13.599024
2.5024755 5.3653669 13.947532
2.3990898 5.1712923 14.301199
2.3086157 4.9253292 14.681822
2.2205267 4.6605959 15.076006
2.1485 4.3274765 15.507311
2.0803237 3.9655633 15.959098
1.9777079 3.7145472 16.364681
1.9408238 3.2029285 16.904177
6.1006541 4.9614019 7.6440659
5.7351956 5.4290304 7.828351
5.4702969 5.6737909 8.0475197
5.2395282 5.8443232 8.2772465
5.0116897 6.0128345 8.5039244
4.8204875 6.0964189 8.7467012
4.6352348 6.1677198 8.9907227
4.4510555 6.2385192 9.2334099
4.2678223 6.3091278 9.4746943
4.1010351 6.338994 9.725584
3.9398284 6.3550091 9.9797592
3.778825 6.3710032 10.233613
3.6180267 6.3869762 10.487144
3.4574318 6.4029293 10.740355
3.3075831 6.3888836 11.002911
3.1612511 6.3641653 11.269302
3.0146661 6.3392963 11.536253
2.8677578 6.3144794 11.803696
2.7406659 6.2281518 12.093998
2.6332932 6.0770912 12.410251
2.5341177 5.8940973 12.741856
2.4334781 5.7085643 13.078208
2.3313749 5.5203352 13.419451
2.2303619 5.3206239 13.769309
2.1431897 5.0647802 14.147101
2.0542397 4.8041329 14.532221
1.9825081 4.470017 14.9554
1.9315555 4.0443659 15.427115
1.9343446 3.3967731 16.010918
6.1308284 4.9454417 6.9306021
5.7661409 5.4116392 7.1267557
5.4946342 5.6726613 7.3488002
5.2646322 5.8425164 7.5821819
5.03754 6.0103669 7.8124828
4.8436317 6.1019144 8.054863
4.6591501 6.1727896 8.2997866
4.4756918 6.2432728 8.5433512
4.2931709 6.3135662 8.7855215
4.124486 6.3500237 9.0345135
3.9639931 6.3659592 9.2879753
3.8037016 6.3818731 9.5411205
3.6436119 6.397768 9.7939453
3.4837248 6.4136438 10.046451
3.3321359 6.4065571 10.305405
3.1865621 6.3818741 10.569873
3.0407031 6.3571415 10.83486
2.8945246 6.3324614 11.100334
2.7480922 6.3076324 11.366363
2.6028357 6.2782173 11.634482
2.4676099 6.2159376 11.914907
2.3667738 6.0403042 12.238127
2.2659259 5.8576393 12.567577
2.1636586 5.6722374 12.901809
2.0687127 5.4539652 13.252871
1.9807532 5.2018785 13.622152
1.8910815 4.9448833 13.998624
1.8196104 4.6098132 14.413715
1.7598493 4.2155852 14.861538
1.7971027 3.4314101 15.492062
6.1607904 4.929595 6.2221003
5.7968736 5.3943672 6.4299479
5.5187759 5.6715403 6.6557045
5.2895365 5.840723 6.8926744
5.0631824 6.0079203 7.1265397
4.8666201 6.1072588 7.3689671
4.6828618 6.1778183 7.6147437
4.5000792 6.2480888 7.8591423
4.3183041 6.3179703 8.1021948
4.1477251 6.3609552 8.3496628
3.9879386 6.376811 8.602417
3.8283536 6.3926458 8.8548527
3.6689682 6.4084635 9.1069717
3.5097826 6.4242601 9.3587761
3.3564887 6.4239635 9.6145668
3.2116325 6.3994131 9.8771019
3.0664592 6.374917 10.140121
2.9210365 6.3502722 10.403682
2.7753294 6.3255801 10.667758
2.6293049 6.3009377 10.932321
2.4937294 6.2424488 11.208506
2.3585985 6.1802473 11.487136
2.222801 6.1177425 11.767138
2.1016636 6.0037127 12.066912
1.9991951 5.82127 12.394265
1.9099894 5.5848908 12.74579
1.8213185 5.3363609 13.10685
1.7309365 5.0830355 13.474874
1.6596259 4.7472854 13.881832
1.5923369 4.3806543 14.308582
1.5837393 3.7679303 14.848653
5.8273983 5.377213 5.7378769
5.5427246 5.6704268 5.9681664
5.3142424 5.838944 6.2086611
5.0886254 6.0054884 6.446022
4.8894124 6.1125593 6.6889119
4.7063313 6.1829047 6.935504
4.5242987 6.2527633 7.1807537
4.3431854 6.3224373 7.424623
4.1707573 6.3717852 7.6709476
4.0116725 6.3875647 7.9229932
3.8527837 6.4033246 8.1747274
3.6940963 6.4190636 8.4261427
3.5356061 6.4347835 8.6772461
3.3806112 6.4412036 8.9302702
3.2364302 6.4168882 9.1908712
3.0920033 6.3924236 9.4520054
2.9472971 6.3679132 9.713644
2.8022757 6.3434539 9.9757662
2.6570039 6.3188496 10.238425
2.5195522 6.2687912 10.509253
2.3851731 6.2069712 10.784757
2.2501352 6.1448488 11.061609
2.1144357 6.0824227 11.339819
1.978068 6.0196877 11.619398
1.8445542 5.9444304 11.904653
1.7541149 5.7134695 12.247808
1.6647712 5.4684067 12.600883
1.5736909 5.2187672 12.960667
1.5025693 4.8821507 13.359632
1.4337729 4.5207114 13.7754
1.4088089 3.9680576 14.277387
5.8577175 5.3601727 5.0504956
5.5665245 5.6692209 5.28613
5.3387494 5.8371816 5.530077
5.1138229 6.0031824 5.7708597
4.9120107 6.1178141 6.0146275
4.7296429 6.1878476 6.2620273
4.5482731 6.2574987 6.5080724
4.367897 6.3267651 6.7527723
4.1936216 6.3824234 6.998301
4.0352297 6.3981247 7.2496448
3.8769994 6.4139051 7.5006566
3.7190025 6.4295683 7.7513733
3.5612371 6.4451127 8.0018005
3.4045076 6.4582815 8.2524204
3.2610283 6.4340963 8.5111427
3.1173084 6.4097643 8.7703848
2.9732759 6.3854847 9.0301046
2.8289988 6.3610601 9.2903519
2.6844094 6.3366871 9.5510759
2.5451446 6.2947674 9.8171062
2.411509 6.2333231 10.089533
2.2772214 6.1715803 10.363286
2.1422789 6.1095371 10.638376
2.0066767 6.0471897 10.91481
1.8707931 5.9832115 11.193031
1.7454803 5.8792934 11.485912
1.6191456 5.7745295 11.781179
1.5110085 5.5981855 12.103964
1.4193258 5.3519325 12.455819
1.348362 5.0144892 12.846839
1.2780938 4.6582212 13.251913
1.2439091 4.1389246 13.728598
5.8878307 5.3432484 4.3677578
5.5900917 5.6681266 4.6095066
5.3630662 5.8354292 4.856853
5.1388655 6.0007915 5.1010118
4.9344201 6.123024 5.3460345
4.7527575 6.192749 5.5942245
4.5720882 6.2620916 5.8410573
4.3924012 6.3310585 6.0865488
4.2162457 6.3930635 6.3316078
4.0585413 6.4086905 6.5822506
3.9009984 6.4243937 6.8325653
3.7436864 6.4399796 7.0825858
3.5866046 6.4554505 7.332314
3.4296806 6.4709988 7.581718
3.2853961 6.4511452 7.8377934
3.1423743 6.4269438 8.09517
2.9990437 6.4027944 8.3530207
2.8554704 6.3785009 8.6113892
2.711587 6.3542604 8.8702335
2.5704494 6.3205786 9.1318989
2.4375482 6.2595081 9.4012966
2.3040035 6.1981421 9.6719971
2.1698101 6.1364784 9.9440126
2.0349643 6.0745134 10.217352
1.8994595 6.0122476 10.492026
1.7722286 5.9183774 10.777673
1.6467043 5.814352 11.068432
1.5201588 5.7094827 11.361555
1.3925813 5.6037531 11.657071
1.2677071 5.48281 11.960004
1.1968659 5.1445808 12.343128
1.1252201 4.7932525 12.73786
1.0824482 4.3058853 13.191059
1.1241534 3.4378219 13.80175
5.9177408 5.3264399 3.6896162
5.613472 5.6670418 3.9382439
5.3871889 5.8336949 4.188931
5.1637115 5.9984188 4.4364047
4.9565983 6.1282911 4.6830597
4.7756791 6.1976089 4.9320221
4.5957026 6.2666488 5.1796236
4.4166622 6.3354149 5.4258723
4.2386689 6.4036098 5.6708097
4.0816493 6.4191589 5.9207516
3.9248223 6.4346914 6.1703858
3.7681892 6.4502034 6.4197121
3.6117494 6.4656944 6.6687317
3.4555368 6.4810724 6.9174585
3.309536 6.4680328 7.1707368
3.1671722 6.4440594 7.4262533
3.02457 6.4199429 7.6822758
2.8816614 6.3958769 7.9387703
2.7385111 6.3716679 8.195776
2.5955305 6.346036 8.4535799
2.4633565 6.2853332 8.7199955
2.3305464 6.2243371 8.9876919
2.197094 6.1630468 9.2566843
2.0629656 6.1015606 9.5269508
1.9282171 6.0396748 9.7985554
1.7986827 5.9570303 10.077227
1.6739583 5.8537359 10.363558
1.5482261 5.7496052 10.652205
1.4214706 5.6446309 10.943196
1.2936833 5.5387993 11.236559
1.1730233 5.4002905 11.54285
1.0568218 5.2373958 11.86022
0.9750762 4.9258709 12.232991
0.92423511 4.4693985 12.664288
0.92445254 3.7702727 13.194689
5.9474049 5.3098483 3.0160217
5.6366692 5.6659641 3.2722774
5.4111233 5.8319707 3.5262465
5.188365 5.9960651 3.7769747
4.9786329 6.1334124 4.0256462
4.7984085 6.2024288 4.2753506
4.6190805 6.2712669 4.5236921
4.4407616 6.3396335 4.7706976
4.2633629 6.407732 5.0163655
4.1045513 6.4295397 5.2650719
3.9483995 6.4449964 5.5140123
3.7924409 6.4604321 5.7626462
3.6366725 6.4758511 6.0109749
3.4811304 6.4911537 6.2590117
3.3334177 6.4848619 6.5098686
3.1917725 6.4609179 6.7635846
3.0498257 6.4370279 7.0177641
2.9076409 6.412992 7.2724471
2.7651842 6.3889112 7.527617
2.6224215 6.3648853 7.7832561
2.4888763 6.310997 8.0454769
2.356792 6.2503672 8.3102179
2.2240732 6.1894484 8.57623
2.090714 6.1282358 8.843524
1.9567125 6.0667257 9.1121082
1.8248184 5.9953594 9.3844233
1.7008843 5.8927879 9.6664038
1.5759529 5.7893906 9.9506531
1.4500411 5.6850548 10.237227
1.3230808 5.5799747 10.526096
1.1989615 5.4590445 10.821878
1.0836475 5.2975349 11.132807
0.96690059 5.1340151 11.447601
0.84869242 4.9684486 11.766335
0.7691462 4.6296849 12.147915
0.73754287 4.0635681 12.616671
5.9769154 5.293263 2.3469357
5.6596828 5.6648955 2.6115465
5.4348722 5.8302608 2.8687353
5.2128263 5.9937301 3.122663
5.000483 6.1384926 3.3737168
4.8209095 6.2073059 3.6241384
4.6423054 6.2757473 3.8732095
4.4646206 6.3439188 4.1209383
4.28793 6.4116259 4.367341
4.1272535 6.439827 4.6151347
3.971772 6.4552097 4.8633823
3.8164806 6.4705729 5.1113253
3.6613777 6.485919 5.3589678
3.5065005 6.5011482 5.6063166
3.357111 6.5014381 5.8551378
3.216146 6.477622 6.1070538
3.0748799 6.4538565 6.359436
2.9333782 6.4299498 6.6123109
2.7915759 6.4060946 6.8656502
2.6495354 6.3820972 7.1194878
2.514174 6.336308 7.3776846
2.3827775 6.2761402 7.6394939
2.2507837 6.2155848 7.9025745
2.1181564 6.1547422 8.1669149
1.9848926 6.093605 8.4325266
1.8509866 6.0321751 8.6994162
1.7275443 5.9313111 8.9768982
1.6034055 5.8286352 9.2568293
1.4782695 5.7251353 9.5390091
1.352125 5.6207972 9.8234653
1.2249855 5.5155125 10.110254
1.1101665 5.3568182 10.414474
0.99428701 5.1947947 10.72283
0.87699342 5.0306506 11.03505
0.75823283 4.8644505 11.351178
0.65823531 4.6082115 11.70004
0.58259058 4.2298636 12.095118
6.0062294 5.2767897 1.6823077
5.6825161 5.6638365 1.9559898
5.4584351 5.8285642 2.2163424
5.2370987 5.9914112 2.4734116
5.022151 6.1435328 2.7272015
4.8432631 6.2120457 2.9783258
4.6653366 6.2801914 3.2281027
4.4883232 6.3480697 3.4765391
4.3122568 6.4155841 3.7236476
4.1497574 6.450026 3.9708643
3.9949396 6.4653354 4.2184219
3.8403106 6.4806256 4.4656782
3.685904 6.4958019 4.7126417
3.5316489 6.5110559 4.9592986
3.3805871 6.5178599 5.2064395
3.2402599 6.4942665 5.4565716
3.0997019 6.4705315 5.7071857
2.9588461 6.446847 5.958262
2.8177559 6.4230204 6.2098255
2.6763978 6.3991508 6.4618664
2.5391903 6.361465 6.7164803
2.4085352 6.3015585 6.97544
2.2772579 6.2413664 7.2356329
2.1453552 6.1808867 7.4970665
2.012821 6.1201172 7.7597508
1.879652 6.0590577 8.0236931
1.7539141 5.9694185 8.2948856
1.6305578 5.8674541 8.5705757
1.5062164 5.7646737 8.8484688
1.3808769 5.6610703 9.1285915
1.2545556 5.5565281 9.4109964
1.1363326 5.415473 9.7049885
1.0213592 5.2547131 10.007103
0.90494061 5.0920711 10.31292
0.78710198 4.9273005 10.622566
0.68082356 4.7042837 10.952963
0.5807941 4.4419427 11.299963
0.47881889 4.1743155 11.653837
0.47261167 3.4448721 12.165382
6.0353489 5.2604237 1.0220942
5.7051716 5.6627846 1.3055458
5.4817724 5.8269815 1.5690093
5.2611842 5.9891124 1.8291588
5.0436001 6.1486263 2.0860362
4.8654346 6.2167449 2.3378391
4.6881399 6.2846947 2.5883021
4.5118303 6.3521867 2.8374281
4.336422 6.4194131 3.0852275
4.1720653 6.4601374 3.3321872
4.0179062 6.4753737 3.5790567
3.8639331 6.490592 3.8256297
3.7101824 6.5056949 4.071907
3.5565805 6.5208769 4.317884
3.4038131 6.5342278 4.5636854
3.2641869 6.5106621 4.8120723
3.1242974 6.487051 5.0609283
2.9841111 6.4634914 5.3102455
2.8436942 6.4397907 5.5600395
2.7029812 6.4161425 5.8102937
2.5639911 6.3862801 6.0617981
2.4340088 6.3268223 6.3179216
2.3034413 6.2669868 6.5752707
2.1722541 6.2068686 6.8338413
2.0404429 6.1464629 7.0936422
1.9080032 6.0857701 7.354682
1.78 6.0071101 7.6202459
1.6574153 5.9058499 7.8917718
1.5338573 5.8037825 8.1654549
1.4093142 5.700901 8.4413214
1.283801 5.5970926 8.7194195
1.1621754 5.4734087 9.0042229
1.0480719 5.3139939 9.3001928
0.93256688 5.1526227 9.5997972
0.81563544 4.9892569 9.9031029
0.70305037 4.799037 10.216979
0.6040132 4.5394745 10.554276
0.50303936 4.2748318 10.898172
0.42007279 3.9123468 11.276965
0.36359286 3.4033933 11.708778
6.0642772 5.2441654 0.36625051
5.7276964 5.6616383 0.66014528
5.5049725 5.8253117 0.92667103
5.2850847 5.9868312 1.1898479
5.0678949 6.1464367 1.4497519
4.8873806 6.2215052 1.7026219
4.7107944 6.2890673 1.9537468
4.5351076 6.3563662 2.2035422
4.3603897 6.423214 2.4520102
4.1941829 6.4701581 2.699028
4.0406761 6.485323 2.9452143
3.8873887 6.5003743 3.1911068
3.7342503 6.5155044 3.4367003
3.5812969 6.5306139 3.6819997
3.4285624 6.5456095 3.9270067
3.2878938 6.5269089 4.1734653
3.148634 6.5035162 4.420578
3.009146 6.4799843 4.66816
2.8693955 6.4564085 4.9162078
2.7293513 6.4328852 5.164712
2.589076 6.4092216 5.4136906
2.4592619 6.3517437 5.6668715
2.329396 6.2922611 5.921422
2.1989181 6.2324972 6.1771722
2.0678201 6.1724524 6.4341359
1.9360731 6.1122189 6.6923027
1.8058043 6.0443993 6.9528608
1.6839836 5.94383 7.220294
1.5611997 5.8424673 7.489841
1.4374425 5.7402992 7.7615261
1.3126997 5.6373158 8.0353765
1.1877038 5.5306354 8.3120136
1.0744817 5.3724442 8.6019917
0.9598248 5.212532 8.895462
0.84378791 5.050549 9.1925573
0.72631788 4.8865671 9.4933224
0.62686038 4.6356611 9.8196898
0.52687001 4.3739476 10.153863
0.42728233 4.096251 10.497593
0.37153959 3.5961018 10.9106
5.7500014 5.6606045 0.01974678
5.5279942 5.8236523 0.28927469
5.308804 5.9845653 0.55542278
5.0922918 6.1435776 0.81827879
4.9091902 6.2261267 1.0725961
4.7332253 6.2934985 1.3243752
4.5582323 6.3604174 1.5748153
4.3841262 6.4270763 1.8239355
4.2161078 6.4800959 2.0713205
4.0632486 6.4951887 2.316824
3.9106071 6.510169 2.5620346
3.7581129 6.5252256 2.806952
3.6058362 6.5401716 3.0515752
3.453707 6.5551929 3.2959065
3.311352 6.5431013 3.5406651
3.1727815 6.5197363 3.7860675
3.0339518 6.4963264 4.0319285
2.8948295 6.47297 4.2782454
2.7554822 6.4494715 4.5250244
2.6158409 6.4260273 4.7722607
2.4842374 6.3765163 5.0221729
2.3550665 6.3173847 5.273963
2.2252896 6.2579732 5.5269365
2.0948989 6.1982832 5.781105
1.9638946 6.1383104 6.0364704
1.8322697 6.0780549 6.2930446
1.7102377 5.981503 6.5560117
1.5882206 5.8808341 6.8214936
1.465266 5.7792706 7.0890894
1.3413117 5.6770029 7.3587856
1.2163969 5.5738182 7.6306486
1.1005425 5.4302855 7.912291
0.98677468 5.2716007 8.1997995
0.87161922 5.1109791 8.4908161
0.75502443 4.9484925 8.7853813
0.64939404 4.7303128 9.096015
0.55036807 4.4714694 9.4207172
0.44939065 4.2077041 9.7517071
0.37929368 3.7848349 10.129341
0.35965443 3.0951109 10.587432
5.3322997 5.9824152 -0.074159622
5.1165018 6.1407452 0.19158411
4.9308186 6.2307129 0.44770765
4.7555137 6.2977977 0.70011425
4.5811329 6.3645296 0.95118999
4.4077082 6.4308138 1.2009368
4.2378473 6.4899449 1.4489908
4.0856638 6.5048752 1.6938128
3.9336257 6.5198803 1.9383483
3.7817705 6.5348678 2.1825895
3.6301308 6.5497437 2.4265375
3.4786367 6.5646944 2.6701989
3.3346305 6.5590553 2.9136004
3.1967111 6.5358076 3.1573081
3.0585003 6.5126143 3.4014688
2.9200656 6.489284 3.6460838
2.7813737 6.46591 3.8911538
2.6423931 6.4425859 4.1366749
2.5090017 6.4009533 4.3837481
2.3805187 6.342164 4.632823
2.2514327 6.283102 4.8830643
2.1217422 6.2237639 5.1344776
1.9914149 6.1642418 5.3870611
1.8605024 6.1043425 5.6408453
1.7362404 6.0186734 5.898839
1.6149772 5.9186916 6.1603303
1.4927635 5.8179231 6.4238729
1.3696142 5.716259 6.689507
1.2454885 5.6137915 6.9572453
1.1262887 5.4874225 7.2309613
1.0133691 5.3300509 7.5126104
0.89908266 5.1707706 7.7976718
0.78340006 5.0095482 8.0862122
0.67162275 4.8234649 8.3830004
0.57349348 4.5676522 8.698431
0.47352099 4.3066802 9.0199938
0.3869071 3.969486 9.3645353
0.33061671 3.468677 9.7556505
4.7776208 6.3020625 0.080905914
4.6038861 6.3685131 0.33259487
4.4310622 6.4346151 0.58296347
4.2594361 6.4996185 0.83196354
4.1078525 6.5145721 1.0761147
3.9564495 6.5295076 1.3199754
3.8052626 6.5443316 1.56354
3.6542192 6.5592318 1.8068213
3.5033898 6.5740194 2.0498099
3.3577008 6.5748625 2.2921877
3.2203903 6.5518322 2.5342236
3.0828595 6.5286627 2.7767057
2.9450736 6.5054522 3.0196366
2.8070002 6.4822931 3.2630177
2.6687031 6.4589958 3.5068493
2.5334949 6.4252486 3.7514958
2.4056919 6.3668017 3.9978943
2.2772944 6.3080826 4.2454395
2.1482952 6.2490911 4.4941421
2.0186949 6.1898232 4.7440052
1.8884857 6.1302795 4.9950399
1.7619653 6.0554514 5.2486486
1.6414491 5.9561453 5.506217
1.5199931 5.856061 5.7657971
1.3976125 5.7550936 6.027422
1.2742412 5.65343 6.2910957
1.1517227 5.5438709 6.5578537
1.0396676 5.3876905 6.8337746
0.92623568 5.2297287 7.1130075
0.81140304 5.0699577 7.3956084
0.69519544 4.9081335 7.6816726
0.59630227 4.6623096 7.9868116
0.49726725 4.404295 8.2991438
0.39634156 4.1411791 8.6175394
0.33880258 3.6580322 8.9891768
4.4542665 6.438293 -0.030059814
4.2830091 6.5036831 0.21959066
4.1298532 6.5241871 0.46366215
3.9791145 6.5389605 0.70684433
3.8285191 6.5538101 0.94974422
3.6781044 6.5686398 1.1923571
3.5278974 6.5833621 1.43468
3.380563 6.5905294 1.6763539
3.2438903 6.5676155 1.9167395
3.1069989 6.5445662 2.1575627
2.9698238 6.5215673 2.3988309
2.8324275 6.4984341 2.640542
2.6947789 6.475256 2.8826985
2.5577843 6.449214 3.1253333
2.4306533 6.3911057 3.3690968
2.302933 6.3327274 3.6139898
2.1745908 6.2741737 3.8600168
2.04568 6.2152538 4.1071906
1.9161706 6.1560564 4.355516
1.7874194 6.0918407 4.6053262
1.6676416 5.9931993 4.8590412
1.5469333 5.8937931 5.114727
1.4253118 5.7935128 5.3724136
1.3027103 5.6925468 5.6321092
1.1791722 5.5906868 5.8938565
1.065623 5.4447351 6.1631122
0.9530344 5.288075 6.4366331
0.83909035 5.1295261 6.7134495
0.72373819 4.969162 6.9936075
0.61877823 4.7555819 7.2856011
0.52068782 4.5003591 7.5889606
0.4207139 4.2402382 7.8981438
0.34679151 3.8435373 8.2387371
0.28998423 3.3419676 8.6082611
4.0015521 6.5484281 0.098898411
3.8515799 6.5632076 0.34113359
3.7018199 6.577877 0.58307171
3.5521998 6.5926237 0.8247366
3.4031882 6.6061482 1.0660295
3.2671804 6.5832586 1.3047752
3.1308913 6.5604191 1.5439649
2.9943843 6.5374451 1.7835875
2.8576267 6.51443 2.0236497
2.7205868 6.4914656 2.2641554
2.5833249 6.4683657 2.5051026
2.455344 6.4152708 2.7463369
2.3282967 6.3572283 2.988616
2.2006607 6.2989197 3.2320142
2.0724344 6.2403412 3.4765387
1.9436135 6.181489 3.7221985
1.8141646 6.1224594 3.968998
1.6935565 6.0298653 4.2186942
1.5735873 5.9311275 4.4705529
1.4526899 5.8316221 4.7243624
1.3308759 5.731246 4.9801574
1.2081094 5.6300821 5.2379532
1.0912662 5.5010967 5.5004921
0.97951055 5.3457165 5.7684174
0.86641598 5.1884747 6.0395527
0.75195718 5.0293398 6.3139558
0.64095211 4.847394 6.5945873
0.54374075 4.5951233 6.8891706
0.44475126 4.3377204 7.1894145
0.35464048 4.0250793 7.5038786
0.29854846 3.5321641 7.8563442
3.7253036 6.5871277 -0.021086693
3.5762982 6.6018071 0.21991777
3.4275002 6.6163778 0.46063089
3.2902632 6.598762 0.69826174
3.1546016 6.5760393 0.93583441
3.0187244 6.5531826 1.1738329
2.8825693 6.5303764 1.4122705
2.7461967 6.5074348 1.6511388
2.6095738 6.4844522 1.8904448
2.4798295 6.4391098 2.12953
2.353416 6.3814964 2.3692355
2.2264528 6.3235207 2.6100402
2.0989025 6.2652817 2.8519549
1.9707631 6.2067728 3.0949869
1.8420312 6.1479931 3.3391442
1.7191725 6.0662417 3.5850654
1.5999348 5.9681625 3.8331618
1.4798033 5.8692312 4.0831766
1.358742 5.7695327 4.3351283
1.2367133 5.6691561 4.5890341
1.1166039 5.5567875 4.8457699
1.0056691 5.402668 5.1082139
0.89343667 5.2466106 5.3737946
0.77980995 5.088892 5.6425343
0.66483927 4.9291682 5.9145246
0.56650543 4.6882939 6.1995964
0.46840954 4.4338808 6.4910831
0.36849022 4.1743865 6.7881641
0.30693245 3.71839 7.1201334
0.33641267 2.7919683 7.5369563
3.3131082 6.6142206 0.097133636
3.1781008 6.5915217 0.33309937
3.04285 6.5687799 0.56949186
2.9073205 6.5460901 0.80632305
2.7715755 6.5232668 1.0435772
2.6355546 6.5004921 1.2812696
2.5040522 6.4628158 1.5185928
2.3783264 6.4054375 1.7557583
2.2520251 6.3477964 1.99401
2.1251445 6.2898903 2.2333531
1.9976819 6.2317171 2.4737968
1.8696034 6.1733718 2.7153492
1.7445481 6.1021423 2.9580569
1.6260322 6.004714 3.2024574
1.5066336 5.9064436 3.4487352
1.386314 5.8074145 3.6969123
1.2650385 5.7077165 3.9470043
1.1428465 5.6071467 4.1990438
1.0315397 5.4588404 4.4558868
0.92010808 5.3041525 4.7160058
0.80735087 5.1476231 4.9792209
0.6932416 4.9892201 5.2455893
0.58891869 4.7802248 5.5199666
0.49174738 4.5285282 5.8029509
0.39276099 4.2719522 6.0913076
0.31516838 3.9006517 6.3991542
0.25860143 3.4068723 6.7308345
3.0667305 6.5843296 -0.029497147
2.9318535 6.5616627 0.20573664
2.7967329 6.5389538 0.44139528
2.6613369 6.5162954 0.67749023
2.5280745 6.486207 0.91343451
2.4029708 6.429245 1.1481071
2.2773261 6.371933 1.3838415
2.1511102 6.3143559 1.6206508
2.0243149 6.2565184 1.8585439
1.8969383 6.1984138 2.0975294
1.7696604 6.1376696 2.3375607
1.6518571 6.040885 2.5783291
1.5331819 5.9432664 2.8209348
1.41357 5.8449974 3.0653992
1.2930639 5.7458725 3.3117461
1.1716284 5.6459818 3.5599961
1.0570803 5.5144448 3.8112803
0.94646406 5.3610058 4.0660558
0.83453727 5.2057533 4.3238473
0.72127771 5.0486517 4.5847087
0.61103415 4.8707323 4.8500929
0.51474857 4.6218066 5.1247783
0.41670036 4.3679838 5.4046483
0.32323599 4.079185 5.6929216
0.26735234 3.5939255 6.0086641
2.6868911 6.5319605 0.07903862
2.5518723 6.5093746 0.31397724
2.4274113 6.4527359 0.54618835
2.3024168 6.3957481 0.77944326
2.1768546 6.3384991 1.0137577
2.0506935 6.2810841 1.249145
1.9239848 6.2233133 1.485599
1.7966968 6.1652775 1.723135
1.6774149 6.0766821 1.9606733
1.559428 5.9798012 2.1996722
1.4405677 5.8820887 2.4404898
1.3207986 5.7836251 2.6831512
1.2001083 5.6844063 2.9276781
1.0823188 5.5693984 3.1742649
0.97250438 5.4171901 3.4238086
0.86139846 5.2631912 3.6762853
0.74900246 5.1072664 3.931756
0.63521838 4.9496942 4.190259
0.53744173 4.7136402 4.4563594
0.44026852 4.4627295 4.7279434
0.34133673 4.2067618 5.0046678
0.27594447 3.7770095 5.3013945
0.2493062 3.1334205 5.6269236
2.4515951 6.4760952 -0.050064087
2.3272429 6.4194298 0.18074703
2.2023306 6.362505 0.41260052
2.0768514 6.3053246 0.64550543
1.9508027 6.2478809 0.87946892
1.8241807 6.1901784 1.1144953
1.7027072 6.1121082 1.3493934
1.5854273 6.0158634 1.5848446
1.4672843 5.9187951 1.8220773
1.3482416 5.8209858 2.0611176
1.2282624 5.7225266 2.3019881
1.1073896 5.6232128 2.544704
0.99826431 5.4726095 2.7891245
0.88796711 5.3198476 3.0363951
0.77637148 5.165287 3.2865772
0.66345692 5.0088973 3.5397182
0.5597887 4.8042669 3.7974682
0.46354747 4.5558949 4.0609961
0.36550212 4.3028784 4.3294568
0.28438592 3.9562485 4.6085558
0.22804523 3.4701355 4.9042521
2.1027336 6.3294282 0.047562599
1.9773397 6.2723107 0.27906799
1.8513764 6.2149367 0.51162338
1.7277158 6.1472635 0.74439335
1.6111606 6.0515537 0.97635126
1.4937245 5.955122 1.2100616
1.3753735 5.8580551 1.4455471
1.2561487 5.7601523 1.6828184
1.1360152 5.6615014 1.9219003
1.0236998 5.5274801 2.1618671
0.91419935 5.3759351 2.404038
0.80341792 5.2226181 2.6490417
0.69133425 5.0674992 2.896925
0.58184147 4.8935065 3.1479163
0.48646617 4.6478376 3.4035807
0.38934326 4.3974986 3.6639962
0.29265738 4.1318684 3.9297004
0.23701596 3.6539159 4.2105408
0.31275606 2.4981294 4.539115
1.8783168 6.2394619 -0.085571289
1.7524928 6.1819692 0.14556885
1.6366291 6.0868769 0.37409735
1.5198925 5.9910746 0.60434341
1.402253 5.8946424 0.83633137
1.2837477 5.7973881 1.070066
1.1643426 5.6993933 1.3055778
1.0488362 5.5817127 1.5419149
0.94012356 5.4313669 1.7790842
0.83014536 5.2792764 2.0190115
0.71890473 5.1253061 2.2617431
0.60630703 4.9697285 2.5073333
0.50908566 4.7383676 2.7554965
0.41284323 4.4907627 3.008069
0.31485772 4.2383342 3.2653456
0.2458024 3.8339617 3.5309348
0.18896222 3.3472433 3.806808
1.5457678 6.0267534 0.0048351288
1.4288541 5.9308577 0.23337603
1.3110609 5.8342381 0.46363688
1.1923511 5.7369885 0.69564533
1.0736835 5.6353168 0.92913628
0.96574521 5.4861546 1.161407
0.85658264 5.3351722 1.3963547
0.74612856 5.1825314 1.6340394
0.63438129 5.0281076 1.874505
0.53136134 4.8277287 2.1165466
0.43603039 4.5825977 2.3614745
0.33891487 4.3330431 2.610929
0.25441408 4.0103817 2.8650084
0.19830585 3.5317063 3.126502
1.2200971 5.7740993 0.091988564
1.1012362 5.6766605 0.32226324
0.99109507 5.5402107 0.55086708
0.88268995 5.3905149 0.78094769
0.77303147 5.2390885 1.0136857
0.66209865 5.0859017 1.2491307
0.55334759 4.9157362 1.486537
0.45886707 4.6732383 1.7240109
0.3626771 4.4261875 1.965838
0.26470566 4.1745605 2.2121429
0.2074585 3.7124314 2.4599876
0.22725058 2.8418303 2.714129
1.0161304 5.5937414 -0.052641869
0.90849376 5.4452181 0.1726613
0.79962254 5.2949858 0.40055132
0.68949342 5.1430178 0.63107491
0.57810688 4.9891849 0.86426926
0.48140955 4.7625041 1.0954804
0.38610411 4.5180149 1.3298712
0.28902292 4.2691369 1.5685773
0.21642685 3.8895326 1.8068485
0.15983701 3.4102588 2.0492244
0.71659112 5.1993732 0.020202637
0.60599065 5.0468636 0.24851179
0.50363445 4.8505292 0.47570276
0.40917778 4.6086559 0.70284843
0.31299591 4.3623691 0.93414068
0.22521806 4.0631113 1.1666856
0.16935086 3.5916531 1.3956513
0.43195152 4.6979294 0.084566116
0.3366549 4.4541831 0.30862713
0.23963714 4.2058754 0.53677511
0.17867231 3.7694197 0.75515509
0.14556241 3.1701837 0.97064543
0.2638371 4.299087 -0.087192535
0.18781185 3.9436629 0.12734365
0.13149929 3.4715059 0.33785486
4.0399861 4.4242144 20.62648
3.674716 4.5278397 20.5376
3.3122354 4.5248699 20.540146
2.9481778 4.4108143 20.637974
4.4108295 4.1210728 20.432323
4.0364799 4.4251814 20.176538
3.6729815 4.5279207 20.090124
3.3122349 4.5248384 20.092716
2.9499454 4.4126234 20.187099
2.5789707 4.0887446 20.459513
4.4053984 4.1261482 19.978291
4.0330067 4.426137 19.730911
3.6712632 4.5279994 19.646912
3.3122354 4.524931 19.649443
2.9516935 4.4145422 19.740471
2.5825946 4.0937243 20.00503
4.3733234 4.8014212 18.986952
4.0146708 4.9881668 18.836002
3.6624036 5.0671921 18.772123
3.3122337 5.061451 18.776764
2.9607761 4.9698448 18.850813
2.603919 4.7666054 19.015095
4.7398024 4.433383 18.848112
4.368196 4.8045635 18.554073
4.0113344 4.9890456 18.407932
3.6607509 5.0672092 18.346014
3.3122342 5.0614929 18.350542
2.9624469 4.970933 18.422279
2.6073456 4.7699194 18.581516
2.2391093 4.3715348 18.897106
4.7326889 4.4412632 18.409754
4.3631182 4.8076754 18.125359
4.0080276 4.990037 17.983814
3.6591148 5.0672235 17.923904
3.3122354 5.0615363 17.92832
2.9641008 4.9718895 17.9979
2.6107414 4.7732019 18.152115
2.2444682 4.3797426 18.457504
4.7256451 4.4490671 17.975742
4.3580885 4.8107567 17.700747
4.0047536 4.9908991 17.563782
3.6574938 5.0673599 17.505648
3.3122339 5.0616989 17.509953
2.9657414 4.9729576 17.577423
2.6140985 4.7763295 17.726921
2.2497687 4.387742 18.022367
4.7186718 4.4567933 17.546015
4.3531075 4.8138103 17.280178
4.0015092 4.9918728 17.147593
3.6558886 5.0673752 17.091373
3.3122356 5.061739 17.09557
2.9673631 4.973897 17.160978
2.6174269 4.7795515 17.305687
2.255023 4.3957911 17.591438
4.7117643 4.4644461 17.120506
4.348175 4.8168325 16.8636
3.9982977 4.9927192 16.735373
3.6542969 5.0675087 16.680847
3.3122349 5.0618982 16.684937
2.9689736 4.974947 16.748327
2.6207263 4.7827411 16.888454
2.2602205 4.4036312 17.164841
4.7049255 4.4720211 16.699156
4.3432889 4.8197069 16.451038
3.9951119 4.9936762 16.326891
3.6527212 5.067522 16.274193
3.3122354 5.0619388 16.278175
2.9705653 4.9758649 16.3396
2.6239922 4.7859025 16.475163
2.2653725 4.4115262 16.742327
4.6981635 4.4793992 16.281988
4.3384476 4.8226748 16.042263
3.9919605 4.9945049 15.922266
3.6508231 5.0936394 15.853037
3.3122349 5.0858483 15.858477
2.9721453 4.9768982 15.934563
2.6272278 4.7890296 16.06576
2.2704747 4.4193392 16.323933
4.6881437 4.5515809 15.824533
4.3255105 5.0377412 15.492384
3.9826722 5.236289 15.356733
3.6464987 5.3110194 15.305677
3.3122344 5.3032756 15.310966
2.9767032 5.21175 15.373497
2.6355889 4.9936695 15.522493
2.2759943 4.4392948 15.901248
4.6614914 4.9521294 15.153532
4.3116789 5.2793055 14.93491
3.9738426 5.463376 14.811913
3.642283 5.5228009 14.772203
3.3122349 5.5152178 14.777271
2.9812541 5.4496145 14.821107
2.6453216 5.2550745 14.951101
2.2983212 4.9005027 15.18803
5.0054064 4.727602 14.906481
4.6396737 5.2620606 14.557292
4.2982144 5.5144787 14.392376
3.9655819 5.6712046 14.28998
3.6381721 5.7293053 14.252019
3.3122337 5.7217669 14.256945
2.9854665 5.6637411 14.294855
2.6543193 5.4910145 14.407707
2.3147342 5.2115183 14.590315
1.9520884 4.6169462 14.978777
4.9698153 5.1708612 14.229898
4.6189055 5.5550866 13.984526
4.285089 5.7439508 13.863913
3.9575238 5.8739047 13.780923
3.6341629 5.9307332 13.744631
3.3122337 5.9233451 13.749349
2.9894965 5.8664818 13.785663
2.6630783 5.7206745 13.878778
2.3306298 5.5127382 14.01157
1.9836252 5.1204262 14.262108
5.312983 4.8980041 14.016657
4.9434662 5.472074 13.658426
4.6016464 5.7819929 13.465031
4.2723107 5.9672861 13.349403
3.9496646 6.0715599 13.284334
3.6302502 6.127265 13.249575
3.3122346 6.1201277 13.254028
2.9934289 6.0643921 13.288807
2.6716084 5.9444056 13.363682
2.3442991 5.758667 13.479586
2.0047576 5.4224472 13.689394
1.638108 4.7891521 14.084583
5.2677221 5.3821998 13.337479
4.9179688 5.7634239 13.105104
4.5848122 6.0035162 12.958755
4.2598619 6.1849351 12.84817
3.9419947 6.2644591 12.799696
3.6264324 6.3189707 12.766468
3.3122351 6.3120785 12.77067
2.9972672 6.257431 12.80398
2.6799161 6.1622276 12.862011
2.3569379 5.9804831 12.972795
2.0252309 5.7151232 13.134546
1.6770608 5.2925868 13.392103
5.6112967 5.0632749 13.153627
5.2371616 5.6749883 12.789528
4.893652 6.0394297 12.572607
4.5684032 6.2194366 12.465466
4.2477303 6.3970132 12.35977
3.9345086 6.4527717 12.326582
3.6227062 6.5062342 12.29476
3.3122334 6.4994755 12.298782
3.0010114 6.4458799 12.330684
2.6880097 6.3744731 12.373186
2.369257 6.196681 12.47901
2.0450695 5.9986658 12.596871
1.705116 5.6265707 12.818348
1.3336022 4.9560437 13.217453
5.5587726 5.5513954 12.495123
5.2075663 5.9584475 12.258625
4.8733892 6.2535377 12.087177
4.5524144 6.4298592 11.984735
4.2378473 6.551527 11.914045
3.9282887 6.5926971 11.890125
3.6197543 6.6336308 11.866343
3.3122354 6.6284857 11.869333
3.0041432 6.5874324 11.893185
2.6950307 6.5462437 11.917115
2.3812599 6.4072728 11.997857
2.0621767 6.2306328 12.100485
1.7298712 5.9112997 12.286018
1.3789506 5.4481187 12.555127
5.9007473 5.2237558 12.316137
5.522604 5.8555689 11.957954
5.1876397 6.1148286 11.810976
4.8630695 6.3093343 11.700708
4.5463572 6.441946 11.625528
4.2334862 6.5592237 11.559042
3.9253907 6.6001883 11.535819
3.6183102 6.6409178 11.51273
3.3122356 6.6358948 11.515575
3.0055931 6.5949492 11.538789
2.6979384 6.5539675 11.562022
2.3860133 6.4248962 11.635195
2.0707159 6.2921028 11.710476
1.7473612 6.0818033 11.829699
1.4151363 5.8218613 11.977062
1.0381467 5.1179705 12.376108
5.8630228 5.4921064 11.801647
5.5114346 5.8727512 11.59117
5.1782594 6.1305428 11.448624
4.8556252 6.3198605 11.343941
4.5404644 6.4517813 11.270995
4.2291608 6.5669479 11.207314
3.9225209 6.6076088 11.18483
3.616879 6.6482363 11.162365
3.3122361 6.6431384 11.165184
3.0070279 6.6023965 11.187712
2.70082 6.5616179 11.21026
2.3904381 6.4348226 11.280373
2.0766864 6.3028216 11.353362
1.7551967 6.097703 11.466784
1.4247422 5.839344 11.609642
1.0749555 5.430017 11.835979
6.2308826 4.9331713 11.743779
5.8490086 5.5215335 11.426588
5.50037 5.8898668 11.228016
5.1689644 6.1462016 11.089824
4.8482437 6.3303862 10.990528
4.5346208 6.4616256 10.919776
4.2248821 6.574502 10.858923
3.9196768 6.6149592 10.837112
3.6154611 6.6553855 10.815319
3.3122344 6.6503153 10.818052
3.0084519 6.6098738 10.839855
2.7036767 6.5692978 10.861729
2.3948271 6.4447527 10.928873
2.0825944 6.3133345 10.999722
1.7629632 6.1135454 11.10743
1.4342523 5.8566504 11.245924
1.0872784 5.459857 11.459839
0.70429206 4.7943001 11.818646
6.2109151 4.9996057 11.345133
5.8351469 5.5506392 11.055627
5.4894238 5.9067059 10.868554
5.1597705 6.1616039 10.734634
4.8409405 6.3407111 10.640533
4.5288372 6.4712753 10.571937
4.2206411 6.581984 10.513771
3.9168582 6.622241 10.49262
3.6140556 6.6624689 10.471485
3.3122339 6.657424 10.474136
3.0098617 6.6171789 10.49528
2.7065039 6.5768042 10.516493
2.3991694 6.4544897 10.580756
2.0884495 6.3238497 10.649392
1.7706522 6.1292329 10.751641
1.4436666 5.8737836 10.885851
1.099472 5.4894753 11.087762
0.7221694 4.8614669 11.41771
6.1912189 5.0651379 10.951904
5.821435 5.5794277 10.688699
5.4785795 5.92348 10.512617
5.1506572 6.1769552 10.382893
4.8336973 6.351038 10.2938
4.5231099 6.480835 10.227371
4.2164421 6.5893979 10.171811
3.9140663 6.6294575 10.151309
3.6126666 6.669487 10.130823
3.3122349 6.6644678 10.133392
3.0112579 6.6244192 10.153888
2.7093065 6.5842452 10.174448
2.4034722 6.4641342 10.235919
2.0942454 6.3341641 10.302437
1.778264 6.1447649 10.399367
1.4529798 5.8906407 10.529425
1.1115246 5.5186663 10.719795
0.73980522 4.9277158 11.022235
6.1718264 5.1294518 10.56415
5.8078747 5.6079054 10.325737
5.4678507 5.9399872 10.16026
5.1416426 6.1920557 10.034655
4.8265309 6.3611689 9.9503851
4.5174294 6.4904041 9.8859873
4.2122793 6.5967422 9.8330002
3.9113011 6.6366081 9.8131351
3.6112874 6.6764421 9.7932854
3.3122344 6.6714449 9.7957754
3.0126414 6.6315928 9.8156338
2.7120821 6.5916157 9.8355541
2.4077377 6.4737883 9.8942671
2.0999866 6.3443804 9.9587517
1.7858027 6.1601439 10.050556
1.4622066 5.9074354 10.176481
1.1234491 5.5475392 10.355817
0.75721264 4.9931817 10.632053
6.1560626 5.1617494 10.196692
5.7944574 5.6360774 9.9666767
5.4572172 5.9564333 9.811326
5.1327071 6.2071095 9.6897659
4.8194313 6.3712058 9.6101913
4.5118084 6.4997854 9.5478382
4.2081542 6.6040211 9.4972916
3.9085591 6.6437869 9.4780083
3.609921 6.6833315 9.4588318
3.3122339 6.67836 9.4612427
3.0140109 6.6387024 9.4804735
2.7148321 6.598917 9.4997663
2.4119577 6.4832525 9.5558558
2.1056798 6.3546004 9.6182432
1.7932658 6.1753726 9.7051563
1.4713423 5.9240618 9.8270245
1.135251 5.5762081 9.9957085
0.77440739 5.0579896 10.247009
6.1405787 5.1927123 9.8337269
5.7811847 5.6639481 9.6114569
5.4466991 5.9726162 9.4658661
5.1238604 6.2220173 9.3482294
4.8123908 6.3812461 9.2731256
4.5062346 6.5091791 9.2127829
4.2040701 6.6112318 9.1646471
3.9058428 6.6508083 9.1459799
3.6085668 6.6901603 9.1274185
3.3122339 6.6852102 9.1297531
3.0153713 6.6457462 9.1483669
2.7175579 6.606153 9.1670427
2.4161446 6.4927273 9.220542
2.1113138 6.3646269 9.2809639
1.8006519 6.190352 9.3631649
1.4803903 5.9405274 9.4810009
1.1469178 5.6044641 9.639514
0.79139423 5.1221504 9.8670092
6.1252613 5.2233386 9.4746923
5.7680531 5.6915197 9.2600164
5.4362817 5.9886408 9.1237774
5.1151061 6.2366781 9.0100441
4.8054237 6.3910937 8.9392395
4.5007172 6.5183854 8.8808718
4.2000198 6.6183786 8.835022
3.9031532 6.6577616 8.8169632
3.6072266 6.6969266 8.7990055
3.3122346 6.6920958 8.8012199
3.0167158 6.6527257 8.819273
2.7202585 6.6133242 8.8373394
2.4202888 6.502018 8.8883772
2.1168957 6.3745594 8.9468212
1.8079722 6.2052875 9.0244379
1.4893465 5.956831 9.1383629
1.1584711 5.6325235 9.2870684
0.80592394 5.1620665 9.5027885
6.1101098 5.2536364 9.1195259
5.7550607 5.7188029 8.9122934
5.4259567 6.0046105 8.7849665
5.1064301 6.2513008 8.675065
4.7985139 6.4009514 8.6083965
4.4952478 6.5275111 8.5520134
4.1960058 6.6254597 8.5083771
3.900486 6.6646562 8.4909153
3.6058974 6.7037277 8.4735088
3.3122361 6.6988254 8.4756927
3.0180507 6.6596417 8.4931488
2.7229364 6.6205268 8.5105753
2.4243953 6.5112228 8.5592699
2.1224303 6.3844995 8.6157255
1.815221 6.2200775 8.6889753
1.498219 5.9729772 8.7990589
1.1698904 5.6601801 8.9384098
0.81945443 5.1927643 9.1466446
6.517683 4.3246355 9.1829967
6.0951195 5.2836094 8.7681646
5.7422042 5.7458 8.5682306
5.4157438 6.0203238 8.4494772
5.0978327 6.2657833 8.3432961
4.7916746 6.4106197 8.2806435
4.48983 6.5365481 8.2261686
4.1920304 6.6324773 8.1846724
3.8978429 6.6714864 8.1677971
3.6045797 6.710372 8.1509762
3.3122354 6.7054949 8.1530857
3.0193715 6.6665916 8.1699152
2.7255883 6.6275673 8.1867962
2.4284663 6.5204387 8.2331371
2.1279111 6.3942499 8.2877245
1.8224 6.2347264 8.3567305
1.506997 5.988863 8.4630861
1.1812 5.6876488 8.5933857
0.83285141 5.2232399 8.7942791
6.4883695 4.4592996 8.7790136
6.0802898 5.3132625 8.4205484
5.7294807 5.772511 8.2277708
5.4056177 6.0359907 8.1171713
5.0893283 6.2800274 8.0147324
4.7848969 6.420197 7.955894
4.4844627 6.5455046 7.9032941
4.1880903 6.6394305 7.8638668
3.8952231 6.6782537 7.8475704
3.6032743 6.7169571 7.8313241
3.3122354 6.7121019 7.8333621
3.0206819 6.6733847 7.8496141
2.7282166 6.6345453 7.8659177
2.4324973 6.5294757 7.9100223
2.1333432 6.4040065 7.9626899
1.8295131 6.2492371 8.0276575
1.5156969 6.0046992 8.1303062
1.1923823 5.7147274 8.2520266
0.84609437 5.2532845 8.4457254
6.4670868 4.5275497 8.4083929
6.0656166 5.3426013 8.0766172
5.7168941 5.7989421 7.8908582
5.3955965 6.051404 7.7880912
5.0808945 6.2942362 7.6892433
4.7781754 6.4297857 7.6340666
4.4791403 6.5544767 7.5833097
4.184185 6.6463242 7.5459223
3.8926291 6.6849627 7.5301938
3.6019807 6.723485 7.514513
3.3122354 6.7186508 7.5164809
3.021982 6.6801167 7.5321665
2.7308207 6.6414614 7.5479016
2.4364913 6.5384293 7.5898418
2.1387236 6.413579 7.6406636
1.836556 6.263607 7.7017112
1.5243148 6.0203819 7.8007188
1.2034557 5.7416244 7.9141903
0.8592062 5.2831144 8.100832
0.44588542 4.2717781 8.5125074
6.4460859 4.5948915 8.0427065
6.0510998 5.3716311 7.7363124
5.704843 5.8207464 7.559154
5.3856735 6.0666704 7.4621463
5.0725431 6.3083105 7.3668289
4.7715197 6.4391923 7.3152008
4.4738698 6.5632734 7.2662559
4.1803102 6.6532502 7.2307634
3.8900557 6.6916142 7.2156305
3.6006989 6.7299528 7.2005072
3.3122349 6.7251434 7.202404
3.0232673 6.686789 7.2175336
2.7334032 6.648315 7.2327099
2.4404533 6.5473981 7.2725182
2.1440537 6.4230628 7.3215632
1.8435268 6.2777462 7.3788853
1.532849 6.0359135 7.4742789
1.2144053 5.7681403 7.579905
0.87216902 5.3125248 7.7596273
0.47757649 4.4597888 8.0959988
6.4253616 4.6613426 7.6818562
6.0367455 5.4002504 7.3996181
5.693387 5.8371935 7.2327209
5.3758326 6.0818944 7.1392536
5.0642772 6.322154 7.0474825
4.7649202 6.4486074 6.9991817
4.468646 6.5719886 6.952054
4.1764736 6.6600199 6.9184294
3.8875067 6.698205 6.9038439
3.5994267 6.7363658 6.8892679
3.3122346 6.7315779 6.8910966
3.0245433 6.6934028 6.9056783
2.7359612 6.6551094 6.9203048
2.4443758 6.5561924 6.9580879
2.1493397 6.4325581 7.005312
1.8504391 6.2918468 7.0590587
1.5413038 6.0513 7.1509395
1.2252507 5.7944837 7.2490349
0.88499594 5.3416252 7.4220114
0.49635696 4.5269117 7.7332039
6.404911 4.7269211 7.3257465
6.0225301 5.4286771 7.0663958
5.6820335 5.8535824 6.9093618
5.3660955 6.0968728 6.8194485
5.056242 6.3336487 6.7319422
4.7583847 6.4578438 6.6860428
4.4634695 6.5806255 6.640666
4.1726699 6.6667328 6.6088428
3.8849792 6.7047377 6.5947971
3.5981684 6.7427206 6.58076
3.3122344 6.7379551 6.582521
3.0258083 6.6999578 6.5965633
2.7385001 6.6619368 6.6106153
2.4482634 6.5649061 6.6464753
2.1545749 6.4418716 6.6919456
1.8572854 6.3058171 6.7422276
1.5496751 6.0665417 6.830658
1.2359746 5.8204541 6.9216051
0.8976984 5.3705254 7.0878873
0.51490164 4.5932627 7.3751435
6.3847265 4.7916412 6.9742866
6.008462 5.4568081 6.7366328
5.6707983 5.8697162 6.5891075
5.3564415 6.1118088 6.5026116
5.0483856 6.3435006 6.4198322
4.7519083 6.4669957 6.3757095
4.4583397 6.5891862 6.3320522
4.1689005 6.6733828 6.3019705
3.8824739 6.7112131 6.2884541
3.5969191 6.7490206 6.2749462
3.3122358 6.7443695 6.2766085
3.0270605 6.7064562 6.290154
2.7410145 6.6686134 6.3036747
2.4521191 6.5736361 6.3376083
2.1597693 6.4511976 6.3813534
1.8640695 6.3196583 6.4283504
1.5579646 6.0815411 6.5134258
1.2459848 5.838666 6.6002016
0.91025901 5.3990192 6.7572799
0.53319168 4.658637 7.0218067
6.3648167 4.8554163 6.6274204
5.9945383 5.4846478 6.4102759
5.659668 5.8856964 6.2718763
5.3468761 6.126605 6.1887403
5.0406055 6.3531704 6.1105537
4.7454844 6.476162 6.06811
4.4532528 6.597671 6.0261779
4.1651649 6.6799784 5.9977741
3.8799906 6.7176328 5.9847794
3.59568 6.7552652 5.9717932
3.3122361 6.7506361 5.9733906
3.0283036 6.7128973 5.986414
2.7435069 6.6752272 5.9994135
2.4559376 6.5821953 6.0315185
2.1649101 6.4603438 6.0735683
1.8707896 6.3333693 6.1173868
1.5661817 6.0964947 6.199131
1.2557495 5.8548126 6.2825341
0.9226985 5.4273229 6.4300585
0.55125523 4.7232685 6.6730237
6.345201 4.9180517 6.2851267
5.9807596 5.5122023 6.0872717
5.648633 5.9016275 5.9575915
5.3374095 6.1411667 5.8778238
5.0328975 6.3627529 5.8040347
4.7391214 6.4851518 5.7632751
4.4482098 6.6061745 5.7229738
4.161459 6.6865158 5.6962199
3.8775239 6.7240887 5.6837082
3.5944524 6.7615485 5.6712341
3.3122339 6.7568493 5.6727986
3.0295348 6.7193756 5.6852775
2.7459776 6.6817875 5.6977949
2.4597263 6.5907717 5.7281032
2.1700091 6.4695053 5.7684855
1.8774472 6.3469524 5.8092966
1.5743222 6.1113129 5.8877649
1.2654274 5.8709078 5.9678211
0.93500137 5.4552341 6.1062427
0.56907558 4.7869582 6.3287816
6.3258204 4.9799919 5.9471712
5.9671211 5.5394735 5.76757
