# .PCD v0.7 - Point Cloud Data file format
VERSION 0.7
FIELDS x y z
SIZE 4 4 4
TYPE F F F
COUNT 1 1 1
WIDTH 1493
HEIGHT 1
VIEWPOINT 0 0 0 1 0 0 0
POINTS 1493
DATA ascii
-0.22869025 1.4946649 9.8948612
-0.10922436 1.4977845 9.9434795
0.023389474 1.478376 9.9694128
0.16105951 1.4515771 9.9881821
0.29966724 1.4245961 10.007079
0.4565677 1.370077 9.9990778
0.61767322 1.3116701 9.9878864
0.80586344 1.2152318 9.9402313
1.0615913 1.0238845 9.8015547
-1.8246654 -0.31845528 7.3282213
-1.8592304 0.28119421 8.0345898
-1.7907667 0.49993145 8.3226538
-1.7052435 0.647578 8.5318356
-1.6119994 0.76021874 8.7019196
-1.519407 0.86523926 8.8626194
-1.4170097 0.93597662 8.9858685
-1.3086287 0.98608875 9.0866203
-1.2145891 1.0674968 9.2195368
-1.126253 1.1565052 9.3594322
-1.0332772 1.2288177 9.481039
-0.93864679 1.2926638 9.5931101
-0.84544039 1.3554126 9.703331
-0.73692793 1.382708 9.7767611
-0.62879807 1.4091082 9.8489742
-0.52139241 1.4353583 9.9207363
-0.40577656 1.444649 9.9752321
-0.28242433 1.4392642 10.015024
-0.15890412 1.4338714 10.054871
-0.032126829 1.4231148 10.089502
0.10448469 1.3962988 10.108559
0.24203677 1.369276 10.127718
0.39187181 1.3238363 10.129392
0.55133903 1.2654576 10.119155
0.72963268 1.1809573 10.084642
0.93293911 1.0628575 10.019203
-1.8786222 0.12506175 8.0764389
-1.8141116 0.36346805 8.3805161
-1.7340158 0.53210831 8.608532
-1.6403877 0.64621329 8.7775974
-1.5491582 0.75743794 8.9423819
-1.4457866 0.82692969 9.0627241
-1.3444314 0.89624524 9.1821051
-1.2610958 1.0053149 9.3413992
-1.179296 1.1102092 9.4952164
-1.0841473 1.1768231 9.6090984
-0.98926371 1.2395509 9.718317
-0.89074099 1.2902987 9.8148365
-0.78965342 1.33246 9.9022379
-0.6790204 1.3526016 9.9673662
-0.56543398 1.3657117 10.025348
-0.452259 1.3788548 10.083214
-0.33093089 1.3760524 10.125416
-0.20109324 1.3579571 10.152857
-0.069396898 1.3375369 10.178264
0.071040586 1.3031248 10.190521
0.21290554 1.2680529 10.20254
0.36286098 1.2214602 10.204068
0.51920915 1.1668901 10.198627
0.68761778 1.0960578 10.178616
0.86704463 1.0116694 10.146822
1.1139218 0.83053374 10.026737
-1.884367 -0.080064952 8.0689039
-1.8326536 0.21027803 8.4219189
-1.7582401 0.40234959 8.6705246
-1.6687363 0.53208005 8.8531542
-1.5720779 0.63021863 9.0021648
-1.4685792 0.70150185 9.1228828
-1.3905485 0.83461428 9.3050957
-1.3070359 0.94372106 9.4617815
-1.2218004 1.0406648 9.6051359
-1.1330922 1.1225812 9.7325258
-1.0335059 1.1740494 9.8290062
-0.93523633 1.225059 9.9244671
-0.83115935 1.2603827 10.004082
-0.72052211 1.2799084 10.068002
-0.60733885 1.2931367 10.125641
-0.48477989 1.2872543 10.164837
-0.35833699 1.2743139 10.197378
-0.22739308 1.2537587 10.222857
-0.095121905 1.2319108 10.247348
0.047970608 1.1922193 10.255393
0.19347091 1.1504248 10.261925
0.34462172 1.1012734 10.262121
0.49950159 1.0484246 10.259467
0.66299701 0.98437607 10.247175
0.84193045 0.89931226 10.216523
1.0486236 0.77595532 10.152279
-1.8513316 0.055849552 8.4636135
-1.7735244 0.24319553 8.7035112
-1.6946009 0.41030657 8.9210672
-1.5937866 0.49877632 9.0583773
-1.5027349 0.60745275 9.2147541
-1.4337409 0.76718771 9.4202909
-1.3497105 0.87565112 9.5737953
-1.2636812 0.97115564 9.7134743
-1.1726511 1.0478188 9.8338366
-1.077337 1.1092418 9.9386625
-0.97129112 1.1423784 10.015697
-0.86598837 1.175018 10.091892
-0.75514656 1.1939056 10.154698
-0.63190156 1.1861755 10.192215
-0.50821573 1.1780165 10.229415
-0.3792128 1.1600162 10.257539
-0.24156146 1.1267073 10.271687
-0.10271673 1.0929954 10.28583
0.040713146 1.0528569 10.294463
0.18677683 1.0101744 10.301222
0.33970553 0.95795929 10.299833
0.4970904 0.90089047 10.294657
0.66281617 0.83303332 10.280472
0.83638734 0.75591421 10.258812
1.0291141 0.65269876 10.214982
-1.8334903 -0.22633421 8.3800602
-1.7889169 0.082370043 8.7366867
-1.7093948 0.25342715 8.954855
-1.6114548 0.35436106 9.1027164
-1.539209 0.52084243 9.313117
-1.4685031 0.67829704 9.5130024
-1.3915211 0.80699575 9.6835766
-1.2999897 0.88896453 9.8081522
-1.2088896 0.96615744 9.9273081
-1.1102997 1.020193 10.023773
-1.0059103 1.057278 10.103749
-0.89248651 1.0718365 10.162308
-0.77459657 1.075841 10.210922
-0.65294713 1.0717316 10.25201
-0.52024037 1.0453838 10.272758
-0.3866865 1.0188669 10.293637
-0.24640565 0.98090279 10.304435
-0.10097985 0.93537414 10.308832
0.047177032 0.88726842 10.311415
0.19784684 0.83717167 10.312748
0.35168558 0.78409708 10.311991
0.50930327 0.72723401 10.308479
0.6701262 0.66779828 10.303336
0.84259993 0.59238744 10.284972
1.0303344 0.49641478 10.249689
1.2808511 0.30822122 10.136403
-1.7855421 -0.14364421 8.7086964
-1.7211548 0.084863424 8.9791708
-1.6222872 0.18756425 9.1269531
-1.5754093 0.43450427 9.4107332
-1.5012654 0.58463764 9.600378
-1.4235471 0.71345747 9.7683868
-1.3360789 0.80722022 9.9022598
-1.2381209 0.86783803 10.004336
-1.1383455 0.91983402 10.097799
-1.0296147 0.94731271 10.168191
-0.91222632 0.95332968 10.218693
-0.78936225 0.94691277 10.257845
-0.65994966 0.92690742 10.284803
-0.52570885 0.89808214 10.304064
-0.38338739 0.85465086 10.31061
-0.23847292 0.80856919 10.315269
-0.086591765 0.75173259 10.310949
0.066252425 0.69611466 10.308302
0.21981461 0.64206278 10.307613
0.37362474 0.59028673 10.309471
0.52795821 0.54014814 10.31329
0.68894893 0.48125029 10.310163
0.856314 0.41466796 10.301142
1.0461059 0.31525934 10.265142
1.3115306 0.10202694 10.134801
-1.7652861 -0.43279219 8.6253309
-1.7210039 -0.12523079 8.9665585
-1.6409451 0.042934656 9.1740704
-1.5995933 0.313146 9.4747772
-1.5338627 0.49116004 9.6873121
-1.4510249 0.60790455 9.8415937
-1.3645293 0.70613515 9.977705
-1.2662673 0.76702213 10.078815
-1.1595976 0.80281258 10.156588
-1.0449198 0.81700265 10.214563
-0.92481297 0.81768107 10.260315
-0.79626817 0.79938066 10.289198
-0.66099864 0.76757121 10.306344
-0.51997054 0.72550046 10.314819
-0.36999214 0.66750753 10.309844
-0.21405105 0.60089266 10.298005
-0.05091612 0.52396929 10.277984
0.11079015 0.45383108 10.264587
0.25687093 0.41603899 10.279472
0.4029904 0.38008332 10.296311
0.55418319 0.33703291 10.307564
0.70998937 0.28818476 10.314426
0.88003856 0.21790862 10.304013
1.07324 0.11318099 10.265918
-1.7024568 -0.40134156 8.8967934
-1.6234735 -0.21888077 9.1149807
-1.6173103 0.17148197 9.5207272
-1.5607725 0.38160121 9.7590818
-1.4785014 0.50242174 9.9147968
-1.3850634 0.58371794 10.033852
-1.2885473 0.65101635 10.139593
-1.1753727 0.67144597 10.203142
-1.0570582 0.67792988 10.254208
-0.92944062 0.66200757 10.285602
-0.79599458 0.63376427 10.30645
-0.65552258 0.59168935 10.315637
-0.50410807 0.52859902 10.307207
-0.33677483 0.43593132 10.274179
-0.21768419 0.44639194 10.329644
-0.10099523 0.46101844 10.388514
0.032370523 0.44282985 10.419722
0.19355853 0.37353992 10.40855
0.43489063 0.16164112 10.280045
0.57899433 0.13311648 10.304598
0.73558873 0.084295988 10.312858
0.90646774 0.013571978 10.303838
1.1098281 -0.10765982 10.254797
-1.5994517 -0.50866425 9.036376
-1.6349769 0.028325796 9.5665064
-1.5746193 0.23273754 9.7960091
-1.501263 0.38340437 9.9759941
-1.405673 0.46084285 10.090207
-1.2991186 0.50326431 10.173092
-1.1864101 0.52680314 10.239176
-1.0611433 0.51744783 10.276677
-0.93082374 0.4965409 10.304383
-0.79088283 0.45454359 10.314352
-0.6409086 0.39248991 10.307786
-0.47331905 0.29558086 10.27255
-0.37475622 0.35114932 10.365744
-0.27253067 0.39599085 10.449455
-0.17466228 0.44711149 10.537888
-0.060724005 0.46406066 10.597762
0.072898224 0.44264054 10.626187
0.2567907 0.32903302 10.580165
0.60176468 -0.070389628 10.305286
0.76052618 -0.12165999 10.312928
0.93666011 -0.20044768 10.299234
-1.6060632 -0.26539218 9.4818707
-1.5885779 0.082520485 9.8332367
-1.5105515 0.22419894 10.002908
-1.4217576 0.32446766 10.135576
-1.3097922 0.3540895 10.206916
-1.190585 0.36254573 10.259995
-1.0630348 0.34922898 10.294622
-0.92557669 0.31247699 10.309739
-0.78008014 0.25899625 10.311291
-0.62248307 0.18101227 10.293094
-0.49708766 0.17962277 10.338735
-0.41570342 0.27364755 10.462437
-0.33902651 0.37220287 10.588863
-0.24478368 0.42934549 10.680834
-0.13900952 0.46044374 10.751316
-0.020405576 0.46504319 10.800344
0.11874731 0.43060362 10.81839
0.6227991 -0.27390492 10.309162
0.79090178 -0.34063077 10.306062
0.99338251 -0.46445155 10.259268
-1.5836698 -0.12855399 9.8201466
-1.5199556 0.063198209 10.030155
-1.4253126 0.15065575 10.15053
-1.3133866 0.18348515 10.224362
-1.190371 0.18420136 10.271183
-1.0603426 0.1667099 10.302961
-0.91932058 0.12288618 10.313301
-0.76882172 0.058968306 10.307693
-0.60645753 -0.028746843 10.283434
-0.51896638 0.05909133 10.401497
-0.4682585 0.22286308 10.579471
-0.39593893 0.33091152 10.711461
-0.30950129 0.4035176 10.814344
-0.21186356 0.44948542 10.895572
-0.10369544 0.47225106 10.958227
0.017124608 0.46953428 11.000892
0.16071148 0.42431104 11.010837
0.8328858 -0.58444238 10.283758
-1.5133401 -0.14916754 10.016699
-1.4266688 -0.032361627 10.160235
-1.3161587 0.0079826117 10.240025
-1.188314 -0.0020173788 10.278455
-1.0543557 -0.027449965 10.304506
-0.91148257 -0.073896408 10.313925
-0.75914282 -0.14065337 10.307585
-0.5998739 -0.21972919 10.292131
-0.48401928 -0.19343793 10.360565
-0.50647217 0.14193094 10.670959
-0.44376802 0.27215612 10.818266
-0.36656868 0.3643266 10.934833
-0.27956718 0.4312464 11.031071
-0.18318252 0.47576988 11.109535
-0.078911588 0.50256884 11.174109
0.038872913 0.50226629 11.217985
0.18130417 0.45617545 11.227575
-1.4928378 -0.40931022 9.9680176
-1.4177394 -0.24938095 10.145085
-1.3061212 -0.2073189 10.226102
-1.1801257 -0.20842898 10.27231
-1.0466244 -0.22965693 10.302603
-0.90177494 -0.27892542 10.311041
-0.75098902 -0.33986568 10.310839
-0.59541994 -0.40855038 10.305218
-0.43599838 -0.48206973 10.296541
-0.52956748 0.027365923 10.73579
-0.48715311 0.20521128 10.917286
-0.42124516 0.32230389 11.051023
-0.34583658 0.41301858 11.163762
-0.26292127 0.48354781 11.260521
-0.15492289 0.50051749 11.316816
-0.018137857 0.46083844 11.33116
0.12804754 0.40535986 11.334317
0.28503543 0.33264673 11.325478
-1.3780512 -0.56520295 10.055506
-1.287063 -0.4535073 10.191489
-1.1674652 -0.43139696 10.256498
-1.0333015 -0.45080435 10.289103
-0.8904146 -0.4919765 10.305131
-0.74122375 -0.54655075 10.311299
-0.58771014 -0.60832965 10.312517
-0.4303323 -0.67553604 10.310235
-0.27206534 -0.7407546 10.310099
-0.52509862 0.1273309 11.00692
-0.47493947 0.28031242 11.165248
-0.41085863 0.39510214 11.293964
-0.29234594 0.39064133 11.334333
-0.15027718 0.33876884 11.340295
-0.0011005849 0.2755388 11.338564
0.14804955 0.21551311 11.339745
0.30144328 0.15045083 11.337924
-1.2157015 -0.86258161 10.036088
-1.1379725 -0.7075839 10.203699
-1.0112149 -0.70072579 10.257355
-0.87136465 -0.72966516 10.283939
-0.72549033 -0.77237976 10.300478
-0.57120794 -0.83354425 10.303686
-0.41314381 -0.90011775 10.30348
-0.25190437 -0.97016764 10.30136
-0.54760975 0.014897466 11.07048
-0.52768105 0.2383436 11.277566
-0.41925108 0.25712574 11.335002
-0.27629477 0.20193684 11.339301
-0.1305062 0.14383185 11.342058
-0.0049578398 0.12928474 11.376138
0.17572124 0.0077351332 11.3353
0.32812983 -0.053976893 11.337317
-0.81417394 -1.0769627 10.185749
-0.6863516 -1.0646122 10.244486
-0.525989 -1.1366826 10.241547
-0.30550861 -1.3538048 10.134217
-0.5397445 0.10602558 11.323864
-0.40436941 0.066452622 11.339994
-0.24652664 -0.019250989 11.324181
-0.15032117 0.02855289 11.402085
-0.0031801909 -0.029927611 11.406082
0.19775648 -0.19233859 11.339301
-0.52536631 -0.088511825 11.327828
-0.38575888 -0.13567293 11.339748
-0.23519461 -0.20419776 11.337461
-0.084249541 -0.26987684 11.337757
0.068092778 -0.33503234 11.339025
-0.3588838 -0.36010706 11.327345
-0.21121292 -0.42003262 11.332392
-0.54513627 1.9152491 0.87838125
-0.50133508 1.9320605 1.1199431
-0.43940061 1.9444634 1.3370614
-0.36465842 1.9537721 1.5371361
-0.29037935 1.9630036 1.7357593
-0.21621591 1.972084 1.9325776
-0.14295858 1.981189 2.128473
-0.070033491 1.9901946 2.3228455
0.18205369 1.9609768 2.3341742
-0.93049866 1.7553818 0.73454142
-0.92120546 1.7821025 1.0194826
-0.88735241 1.8022385 1.2694774
-0.84561855 1.8200524 1.5061235
-0.8024984 1.8371804 1.7375894
-0.7595306 1.8540107 1.965816
-0.71713573 1.8706508 2.19135
-0.67572206 1.8872024 2.414691
-0.63475519 1.9035437 2.6352973
-0.59390694 1.9196053 2.8528945
-0.53649485 1.9315932 3.050669
-0.46533293 1.9402552 3.2325628
-0.39457721 1.9488502 3.4132352
-0.32453877 1.9574484 3.5929999
-0.25527045 1.9660612 3.7719035
-0.18660954 1.9746537 3.9497952
-0.10840881 1.9810354 4.1176577
0.034726322 1.9734132 4.2278852
0.29882759 1.9402673 4.2365022
-1.1874139 1.5968627 0.73788118
-1.1836123 1.6269186 1.0301318
-1.1624248 1.6517406 1.2951937
-1.1342514 1.6742226 1.5470719
-1.1056333 1.6961398 1.7941356
-1.0775411 1.7177582 2.0376563
-1.0469787 1.7383229 2.2743449
-1.0039361 1.7553318 2.4934464
-0.96145058 1.772153 2.7100234
-0.91936111 1.7887526 2.92396
-0.87776083 1.8051591 3.1354098
-0.83659035 1.8213639 3.3443685
-0.79579282 1.8373586 3.5508285
-0.75566047 1.8532193 3.7551305
-0.71623224 1.868958 3.9573455
-0.67015332 1.8828524 4.1506715
-0.6245873 1.8966186 4.3420939
-0.57229018 1.9085891 4.5251994
-0.48057851 1.9113427 4.6719913
-0.38598469 1.9133956 4.8158722
-0.27697513 1.9121757 4.9474101
-0.15806457 1.9087722 5.071084
-0.019037008 1.9009849 5.1792874
0.24272507 1.866459 5.1931696
-1.3943448 1.4277283 0.68146038
-1.3930213 1.4606371 0.97879505
-1.3695953 1.4865453 1.2422791
-1.3416905 1.5106554 1.4954963
-1.3115191 1.5336413 1.7415962
-1.2821381 1.5563855 1.9844847
-1.2531396 1.5787828 2.2237556
-1.2246104 1.6008675 2.4596012
-1.1965445 1.6226463 2.6920915
-1.1687829 1.6440865 2.9211392
-1.1413684 1.6652083 3.1468737
-1.114342 1.6860318 3.3694186
-1.0877419 1.7065761 3.588892
-1.0617514 1.7268949 3.8055422
-1.0253522 1.7441919 4.0087233
-0.97805548 1.7584265 4.1987123
-0.93136847 1.7725563 4.3869591
-0.87552172 1.7841659 4.5645986
-0.81717193 1.7949551 4.7381592
-0.75548911 1.8047439 4.9071131
-0.6791755 1.810835 5.0620708
-0.6031912 1.8168995 5.2163587
-0.50064003 1.8165653 5.3480687
-0.35658669 1.806487 5.446775
-0.21144313 1.7963243 5.5461555
-0.063100547 1.7855924 5.6446271
0.19832307 1.7491341 5.6605592
0.80328029 1.635223 5.4320698
-1.5116332 1.232543 0.50785875
-1.5433719 1.2782273 0.85308218
-1.5360267 1.3109658 1.1400056
-1.5190384 1.3400979 1.4090528
-1.4975567 1.3672817 1.6675005
-1.4767191 1.394104 1.92204
-1.454486 1.4199753 2.1703582
-1.4246299 1.4431092 2.4055085
-1.3952522 1.4659241 2.6373281
-1.3663411 1.4884267 2.8658881
-1.3376982 1.5105693 3.0910499
-1.3093638 1.5323741 3.3129413
-1.2814248 1.5538741 3.5317352
-1.253967 1.5751023 3.7475929
-1.2271682 1.596114 3.960752
-1.1952596 1.6153586 4.165659
-1.1637563 1.6343596 4.3679686
-1.1257296 1.6512877 4.5612898
-1.0850456 1.6672136 4.7496166
-1.0398273 1.6816758 4.9315023
-0.97071087 1.6897181 5.0904074
-0.89510769 1.695961 5.2425947
-0.8018074 1.6976093 5.379117
-0.70224798 1.697657 5.5103016
-0.60188466 1.6975031 5.6408381
-0.48204333 1.6925397 5.7562275
-0.32597893 1.6787852 5.8447452
-0.16823751 1.6648523 5.9339533
0.022933602 1.6430941 6.000802
0.28961295 1.6036471 6.0170264
-1.670305 1.087772 0.69554853
-1.6715562 1.1257139 0.99778986
-1.6553833 1.1572013 1.2712235
-1.6344249 1.1864952 1.5333738
-1.612232 1.2147921 1.7891631
-1.590642 1.2427009 2.0410509
-1.5694032 1.2701552 2.2888343
-1.5485089 1.2971655 2.5326138
-1.5280426 1.323772 2.7725925
-1.5078549 1.3499401 3.0086973
-1.487848 1.3756537 3.2409234
-1.4681075 1.4009516 3.4694707
-1.4448268 1.424728 3.6904819
-1.4165115 1.4465909 3.902781
-1.3850827 1.4671478 4.1087103
-1.3525201 1.4870002 4.3104858
-1.316484 1.5055054 4.5060358
-1.2749217 1.5221251 4.6937432
-1.2335775 1.5385059 4.87925
-1.1778609 1.5506375 5.0496049
-1.1225369 1.5626618 5.2185831
-1.0546694 1.5710824 5.3751783
-0.97904003 1.5772759 5.5241313
-0.8844077 1.578312 5.6567402
-0.77331924 1.5749946 5.7760983
-0.66203505 1.5716822 5.8957539
-0.54880393 1.5679208 6.0143709
-0.42048281 1.560346 6.1222677
-0.27023283 1.547309 6.2152252
-0.13024691 1.5370798 6.3171854
-0.05453372 1.5431259 6.4650674
-0.46586037 1.6701572 6.9421558
-0.53486472 1.7107313 7.1764755
-0.53334761 1.733407 7.3600826
-0.52896154 1.7550293 7.5390205
-0.47791272 1.7650752 7.6865392
-0.42133445 1.7736439 7.8294888
-0.36504966 1.7821505 7.9715571
-0.28167731 1.7841529 8.0971127
-0.19063133 1.7843329 8.218154
-0.099687994 1.7845337 8.3392296
0.056956351 1.7696176 8.4255333
0.29865599 1.7355007 8.4697876
-1.7382219 0.87509954 0.45509243
-1.7820168 0.93081456 0.82065821
-1.7825959 0.97037524 1.1203189
-1.7712712 1.0050212 1.398294
-1.7481985 1.034959 1.6559486
-1.7254105 1.0643725 1.9092469
-1.7029481 1.0932909 2.1583579
-1.6809413 1.1217722 2.4035518
-1.6593347 1.1498115 2.6448627
-1.6380711 1.1774035 2.8823283
-1.6171455 1.20456 3.11604
-1.5964103 1.2312469 3.3459377
-1.5759985 1.2575195 3.5722625
-1.5559447 1.2834007 3.7951455
-1.5351689 1.3085697 4.0135698
-1.5112772 1.332319 4.2253046
-1.487591 1.3556888 4.4338875
-1.4554565 1.3761066 4.6311526
-1.4211671 1.3955148 4.8235807
-1.369246 1.4094057 4.9972715
-1.3134921 1.4219346 5.1656547
-1.252073 1.4326105 5.3274078
-1.1765084 1.4390632 5.4756722
-1.1012495 1.4454898 5.6233368
-1.015563 1.448882 5.7616558
-0.92915595 1.4520158 5.8989601
-0.82924223 1.4513744 6.0253377
-0.71693325 1.4473571 6.1423616
-0.61571205 1.446411 6.2681441
-0.5383907 1.4519025 6.411417
-0.63055408 1.5024688 6.6743464
-0.7668795 1.563882 6.9616351
-0.81106174 1.6001441 7.178968
-0.80751848 1.6234121 7.3603182
-0.80166918 1.6457143 7.537364
-0.76850438 1.6606729 7.6945229
-0.73571545 1.6754919 7.850131
-0.70321208 1.6901525 8.004159
-0.64731449 1.6987379 8.1427832
-0.59174544 1.7072728 8.2805939
-0.5364998 1.7157577 8.4176006
-0.44839662 1.7160853 8.5358219
-0.32350427 1.707485 8.634573
-0.19786936 1.6988339 8.7339134
-0.071483076 1.6901309 8.833847
0.1682331 1.6546724 8.8794737
-1.8328738 0.71165842 0.55867577
-1.8599331 0.76395738 0.90058994
-1.8549995 0.80346763 1.1922321
-1.8426409 0.83946073 1.4682422
-1.8276019 0.87374073 1.7354083
-1.8127403 0.90737045 1.9976487
-1.7981434 0.94040036 2.2552125
-1.78385 0.97286266 2.5082815
-1.7686679 1.0043657 2.7555933
-1.7466776 1.0329309 2.9906456
-1.724987 1.0610322 3.2219558
-1.7036343 1.0886958 3.4496632
-1.6825235 1.1159023 3.6737554
-1.6618242 1.1427209 3.8945069
-1.6383562 1.1681354 4.1087594
-1.6138256 1.1927309 4.3184981
-1.5856688 1.2157182 4.5213928
-1.5531008 1.2368951 4.7170167
-1.5185491 1.2570664 4.907989
-1.4733562 1.2735904 5.0866156
-1.4285624 1.2899393 5.2634521
-1.3672845 1.3010042 5.4238071
-1.296562 1.3090382 5.5746951
-1.2149138 1.3136809 5.7154574
-1.1288137 1.3169296 5.8520074
-1.0420823 1.3199376 5.9876494
-0.95434391 1.3226023 6.1221371
-0.87531197 1.3277249 6.2629271
-0.82065415 1.3397102 6.4212289
-0.8840794 1.3848779 6.6639032
-0.9811995 1.4387467 6.9251156
-1.0238848 1.4765973 7.1422243
-1.02438 1.5021964 7.3263326
-1.0249506 1.527404 7.507515
-1.0058076 1.5468583 7.6730709
-0.98475277 1.5654895 7.8351974
-0.96391135 1.5838847 7.9953403
-0.91163594 1.5936612 8.1345701
-0.85601765 1.6024071 8.2707539
-0.80072123 1.6111026 8.4061508
-0.73577482 1.6171663 8.5352297
-0.65370709 1.6187373 8.6543751
-0.57185203 1.6203392 8.7734623
-0.49004251 1.6219286 8.8923998
-0.33729392 1.6056657 8.9756775
-0.16482335 1.5847213 9.051075
-0.013222158 1.5692507 9.1385651
0.16693681 1.5469825 9.2145081
0.35148913 1.523962 9.2907925
-1.9266546 0.54982251 0.66132021
-1.9369946 0.59808868 0.97953463
-1.9269392 0.63750029 1.2636709
-1.9124379 0.67438608 1.5362849
-1.8968062 0.71006989 1.8021197
-1.8813627 0.74507844 2.0630667
-1.8662405 0.77948177 2.3194301
-1.8512928 0.81324506 2.5711648
-1.8367872 0.84648365 2.8187129
-1.8224885 0.87913024 3.061919
-1.8083911 0.91119969 3.3008933
-1.7944887 0.94270742 3.5357499
-1.7809105 0.97371411 3.7667358
-1.765815 1.0036039 3.9920366
-1.7403021 1.0293888 4.2028046
-1.7151508 1.0548078 4.4105816
-1.6826115 1.077291 4.607883
-1.6495802 1.0991951 4.8018484
-1.6089072 1.1181989 4.9859157
-1.5635364 1.1353356 5.1633191
-1.5125725 1.150368 5.3336039
-1.4490936 1.1611512 5.4911175
-1.3851455 1.1715955 5.6469188
-1.3116423 1.1788709 5.7934875
-1.2384045 1.1861017 5.9394011
-1.1529746 1.1894637 6.0747356
-1.0688999 1.1931813 6.2107329
-0.99638802 1.2003255 6.3550978
-1.0041046 1.231361 6.5583086
-1.1227489 1.2948006 6.8385596
-1.171815 1.3367109 7.0622091
-1.1830754 1.3668969 7.2549238
-1.1822391 1.3930883 7.4360723
-1.1708193 1.4158174 7.6073189
-1.1488011 1.4351625 7.769228
-1.1270888 1.4542866 7.9292145
-1.0962379 1.4705467 8.0815172
-1.0570781 1.4842404 8.2270937
-1.0182586 1.4978156 8.3714075
-0.97631043 1.5103245 8.5125008
-0.9152531 1.5174478 8.6416759
-0.83413368 1.5190507 8.7592545
-0.75318009 1.5206739 8.8767548
-0.64769942 1.5157552 8.9815044
-0.52538091 1.5064682 9.0783424
-0.47339708 1.5157331 9.2103195
-0.42727143 1.5263853 9.3441372
-0.36373836 1.5323913 9.4688826
-0.28295463 1.5338917 9.5853157
-0.193919 1.533272 9.6980152
-0.077738702 1.5258064 9.7993107
0.13862461 1.4933259 9.8602486
-1.9676948 0.36826289 0.6913991
-1.9851952 0.42180109 1.0196462
-1.985106 0.46711242 1.317028
-1.9788373 0.50899762 1.60005
-1.9656885 0.54728937 1.868535
-1.9496696 0.58366174 2.1281981
-1.9338896 0.61937171 2.3832016
-1.9184313 0.65447104 2.6337767
-1.9033327 0.68899298 2.880091
-1.888495 0.7229178 3.1221457
-1.8738229 0.75622851 3.3599532
-1.8594017 0.78897369 3.5937219
-1.8452644 0.82118315 3.8236017
-1.8297665 0.85228038 4.0479736
-1.8117702 0.88189399 4.2658935
-1.7921762 0.91038275 4.4785328
-1.7661664 0.93609726 4.6813998
-1.7403023 0.96138352 4.8812656
-1.6984162 0.98071527 5.0631132
-1.6527889 0.99842417 5.2392292
-1.5936961 1.0112834 5.4012175
-1.5302262 1.0224532 5.5578718
-1.4617829 1.0317812 5.7089767
-1.3883893 1.0393242 5.8548732
-1.3144436 1.0465556 5.9994531
-1.239803 1.0534385 6.1426568
-1.1756458 1.0635473 6.2932525
-1.1462617 1.0844815 6.4691906
-1.2237704 1.1385832 6.7223072
-1.294431 1.1896493 6.9645052
-1.3266294 1.2280062 7.1738486
-1.3302181 1.256981 7.3592229
-1.3322241 1.2850024 7.5404215
-1.3117414 1.3058028 7.7037897
-1.2890911 1.325622 7.8635659
-1.2649281 1.3446772 8.020319
-1.2252026 1.3588593 8.1655445
-1.1858196 1.3729188 8.309516
-1.1467748 1.3868573 8.4522486
-1.0925331 1.3962195 8.5849228
-1.0324163 1.4037652 8.713397
-0.97258002 1.4112754 8.8412695
-0.90071267 1.4152982 8.9620686
-0.791825 1.4089563 9.0634985
-0.72570211 1.4145235 9.186882
-0.69053251 1.4284968 9.3247538
-0.65388447 1.4418629 9.4605827
-0.60432583 1.4515455 9.5892067
-0.54673249 1.4589324 9.7133236
-0.47228736 1.4617248 9.8294373
-0.3614983 1.4548655 9.9299717
-0.1973266 1.4340854 10.009302
-0.019764006 1.4101051 10.08523
0.30717272 1.3477812 10.105825
-1.9958785 0.18110313 0.70368481
-2.0120997 0.23667742 1.0309548
-2.0118594 0.28412008 1.328845
-2.0050795 0.32782149 1.6118598
-1.9982958 0.37059212 1.8890419
-1.9916015 0.41249913 2.1606889
-1.9850383 0.4535861 2.4270205
-1.9786463 0.49389505 2.6882467
-1.9695816 0.5323261 2.9412057
-1.9541221 0.56748128 3.1820178
-1.9389277 0.6020363 3.4187169
-1.9239888 0.63600528 3.6514046
-1.9093025 0.66940433 3.8801856
-1.8922455 0.70126444 4.1024284
-1.8738432 0.73201156 4.319458
-1.8517036 0.76079559 4.5290823
-1.8253775 0.78750825 4.7312155
-1.7959676 0.81260645 4.9272723
-1.7575114 0.83399838 5.1119657
-1.7183981 0.85476446 5.2935972
-1.6623361 0.8691901 5.4577231
-1.6067047 0.88350594 5.6205945
-1.5378549 0.8929987 5.7705784
-1.4646144 0.9008193 5.9158421
-1.3899786 0.90802932 6.0591087
-1.3175563 0.91585886 6.2033534
-1.2570219 0.92751992 6.3560138
-1.2685173 0.96280897 6.5622573
-1.3676541 1.0262465 6.8299284
-1.4140619 1.0714685 7.0526123
-1.4289289 1.1057642 7.2481956
-1.4316658 1.1356132 7.4318223
-1.4255918 1.1621777 7.6064215
-1.4100655 1.1853362 7.7720752
-1.3947482 1.2081864 7.9355202
-1.3707591 1.2279863 8.0912228
-1.3402114 1.2454572 8.2409344
-1.3099399 1.2627373 8.3890848
-1.2672768 1.2760001 8.5283175
-1.2070525 1.2837887 8.6562805
-1.1471477 1.2915528 8.7836723
-1.0874815 1.2992687 8.9104462
-0.99728602 1.2979158 9.0204449
-0.92135984 1.3007361 9.1378717
-0.89935356 1.3190888 9.2818928
-0.87648648 1.3369228 9.4237919
-0.84411806 1.3517907 9.5595684
-0.80040663 1.3632368 9.6887817
-0.72657543 1.3660691 9.8035336
-0.64869338 1.3677329 9.9162769
-0.53444654 1.359319 10.013578
-0.40894526 1.3479348 10.107035
-0.16999382 1.3057867 10.156561
0.1198985 1.2504396 10.190216
0.58886522 1.1477269 10.162014
-2.0179436 -0.0093799978 0.70741177
-2.0391796 0.051037237 1.0424266
-2.0384583 0.10048367 1.3403859
-2.0313523 0.14608629 1.6236439
-2.024343 0.19075672 1.901176
-2.0174713 0.23454244 2.1732121
-2.0104654 0.27735567 2.4395838
-2.0038621 0.3194513 2.7011161
-1.9973862 0.36073762 2.9576192
-1.9910333 0.4012374 3.2092361
-1.9847577 0.44095534 3.4560556
-1.9785123 0.47989666 3.6981704
-1.9723825 0.51811773 3.935807
-1.9544754 0.55097127 4.1566734
-1.9356282 0.58282578 4.3727732
-1.9110215 0.61185402 4.5794625
-1.8843405 0.63954139 4.7808223
-1.8514352 0.66435838 4.9731164
-1.8127353 0.68654555 5.1572261
-1.7688937 0.70641732 5.3341823
-1.7126727 0.72137773 5.4978986
-1.6552927 0.73564589 5.6589794
-1.5893753 0.74657744 5.811233
-1.5234497 0.75731188 5.9623132
-1.4564977 0.76749349 6.1114211
-1.3972597 0.78020877 6.2656145
-1.3560474 0.79898441 6.4325323
-1.4123863 0.85113478 6.6717787
-1.4904991 0.90985614 6.9218926
-1.5281079 0.95383239 7.1366434
-1.5300038 0.9850471 7.3216515
-1.5319076 1.015747 7.5035563
-1.5179446 1.0406866 7.6717048
-1.5018868 1.0645316 7.8360295
-1.4860418 1.0880604 7.9981756
-1.4556553 1.1065105 8.1489172
-1.4247789 1.1245105 8.2975979
-1.3942176 1.1423264 8.4447594
-1.351078 1.1558925 8.5829172
-1.3018765 1.1673493 8.7163677
-1.2529612 1.1787181 8.8489132
-1.1862042 1.1844105 8.9707985
-1.0927353 1.1818407 9.078145
-1.0549049 1.1962105 9.2141562
-1.0314696 1.2147053 9.3560352
-1.004039 1.23173 9.4943314
-0.96951467 1.2463964 9.6277809
-0.92290586 1.2572849 9.7544117
-0.8691321 1.2659177 9.8769045
-0.78986317 1.2670165 9.9876337
-0.68234175 1.2599475 10.086414
-0.50440127 1.2328047 10.15712
-0.29114228 1.195998 10.216173
0.024059594 1.130911 10.239267
0.42810303 1.041809 10.234814
-1.9689891 -0.23399447 0.61240816
-2.0198262 -0.15673609 0.99073267
-2.0356195 -0.097246572 1.3127208
-2.043222 -0.042763516 1.6166253
-2.05042 0.010370642 1.9132881
-2.0433712 0.056049317 2.1857145
-2.0360563 0.10065241 2.4522934
-2.0291054 0.14448778 2.7139702
-2.0225103 0.18757473 2.9708691
-2.0158653 0.22976425 3.222662
-2.0093462 0.27115679 3.4696987
-2.0028625 0.31173861 3.712018
-1.9965835 0.35160416 3.9499416
-1.9860547 0.38895017 4.1789322
-1.9755399 0.42557865 4.4037709
-1.9573915 0.45843917 4.6169286
-1.9383192 0.4903084 4.8255887
-1.9067471 0.51665241 5.018837
-1.8677635 0.53961253 5.2023258
-1.8192146 0.55844903 5.3746223
-1.7629166 0.57397145 5.5380054
-1.7028127 0.58776724 5.6964402
-1.6367908 0.59908789 5.8483887
-1.5703859 0.61006409 5.9988565
-1.5033793 0.62062424 6.147717
-1.4473245 0.63501257 6.3042469
-1.4291267 0.66290379 6.4888401
-1.5145495 0.72763348 6.7495513
-1.5797055 0.78402251 6.9888325
-1.6098883 0.8270762 7.1972265
-1.6177175 0.86155999 7.3856115
-1.6211936 0.89395446 7.5676789
-1.6092999 0.92050803 7.7362838
-1.5927224 0.94502294 7.8992972
-1.5711875 0.96745646 8.0568314
-1.5397058 0.98617721 8.2060413
-1.5085075 1.0046939 8.3537025
-1.4768333 1.0227596 8.4993916
-1.4272497 1.0346487 8.6330223
-1.3779938 1.0464594 8.76577
-1.3290246 1.0581803 8.897625
-1.255311 1.0617677 9.0151234
-1.1876559 1.0672328 9.1354828
-1.1746507 1.0899166 9.2832527
-1.1584692 1.1112621 9.4274864
-1.127645 1.1277232 9.5628147
-1.0902579 1.1419091 9.693655
-1.0364976 1.1508555 9.8158188
-0.97456163 1.1571776 9.9336023
-0.88748378 1.155794 10.040018
-0.76990491 1.1452591 10.133779
-0.59859735 1.1188349 10.206573
-0.34504956 1.0684067 10.24911
-0.022875369 0.99848789 10.269505
0.37481505 0.90747261 10.267557
-1.9113326 -0.46650207 0.50480986
-1.9836094 -0.37507719 0.91577673
-2.003547 -0.31068492 1.2459097
-2.0133142 -0.25250232 1.5550399
-2.0207212 -0.19667627 1.8542304
-2.0281887 -0.14201097 2.1469185
-2.0348544 -0.088864788 2.4322536
-2.0417757 -0.036710799 2.7117624
-2.0477049 0.01392208 2.9841573
-2.0408103 0.057828248 3.2361746
-2.0340033 0.10088532 3.4833786
-2.0273223 0.14313552 3.7259514
-2.0208087 0.18462044 3.9640703
-2.0097561 0.22335555 4.1929345
-1.9989796 0.26145473 4.4179173
-1.9800365 0.29540479 4.6306686
-1.9608467 0.32860535 4.8395967
-1.9308255 0.3567344 5.0346885
-1.8986793 0.38347346 5.2248807
-1.8537149 0.40455449 5.4006014
-1.8031356 0.42300773 5.5691562
-1.7463078 0.43865412 5.7303882
-1.6841059 0.45191276 5.8854661
-1.6172261 0.4631179 6.0353255
-1.5504973 0.47418261 6.1842098
-1.4972154 0.49018347 6.3427448
-1.5021198 0.52791309 6.5450845
-1.599489 0.59966224 6.8142109
-1.6511867 0.65320575 7.0425901
-1.6714883 0.69426852 7.2431474
-1.6787381 0.72986996 7.4306293
-1.6774976 0.76180083 7.6089525
-1.6672885 0.78997934 7.7782927
-1.6571884 0.81773478 7.9451489
-1.637852 0.84177256 8.1035652
-1.6131237 0.86353105 8.2564526
-1.5887172 0.88505316 8.407608
-1.5524442 0.90213746 8.5497961
-1.502811 0.91437721 8.6827259
-1.4535038 0.92653626 8.8147793
-1.3995981 0.93695641 8.9432526
-1.3194551 0.93843836 9.0567303
-1.2781844 0.95280313 9.1904345
-1.2612829 0.97497934 9.335351
-1.2423708 0.99616432 9.4774246
-1.2158651 1.0145684 9.6140842
-1.180367 1.0298028 9.7450171
-1.1370234 1.0423043 9.8711319
-1.0704081 1.0472351 9.9859247
-0.98379332 1.0457921 10.091719
-0.83505398 1.0249321 10.171675
-0.64475387 0.99146003 10.236434
-0.37135965 0.93283343 10.271152
-0.017516911 0.85039461 10.279781
0.38353997 0.75475049 10.277359
0.94459659 0.61211425 10.225079
-1.9016252 -0.61955369 0.77800989
-1.9608555 -0.53229713 1.1645823
-1.9829371 -0.46522677 1.4925237
-1.9907465 -0.40655303 1.7945261
-1.9985156 -0.34915304 2.0898023
-2.0057445 -0.29322499 2.3779552
-2.0130374 -0.23843746 2.6599541
-2.0203481 -0.18477641 2.9359345
-2.0273664 -0.13235085 3.2057233
-2.0341022 -0.081118152 3.4695351
-2.0407803 -0.030941114 3.7278044
-2.0448427 0.017066002 3.9779618
-2.0335224 0.057303712 4.2069774
-2.0224826 0.096879683 4.4321022
-2.0027874 0.13192537 4.6444874
-1.9834363 0.16644943 4.8536434
-1.9522738 0.19527777 5.0480037
-1.9199464 0.22307238 5.2383924
-1.8733671 0.24438049 5.412982
-1.8226202 0.26356661 5.5817523
-1.7648439 0.27951148 5.7425065
-1.7038467 0.29385552 5.898973
-1.6419222 0.30756798 6.0532956
-1.5823472 0.32197696 6.2082396
-1.5348773 0.34093475 6.37149
-1.5808704 0.39631799 6.6058216
-1.6775517 0.47050405 6.8736367
-1.7222137 0.52331054 7.0960035
-1.7328086 0.56216276 7.288857
-1.7394447 0.59885538 7.4754176
-1.7335603 0.63021588 7.6500483
-1.7229633 0.6592949 7.8187265
-1.7125189 0.68795228 7.984961
-1.6892402 0.71142387 8.1404562
-1.6642969 0.73390853 8.2928848
-1.6396396 0.75613576 8.4435692
-1.6030116 0.77371347 8.5852327
-1.5605121 0.78892326 8.7220078
-1.5183487 0.80401325 8.8577023
-1.4612205 0.81362426 8.9838972
-1.3831863 0.81581718 9.0980759
-1.3643603 0.8384074 9.2430305
-1.3469472 0.86113822 9.386878
-1.3241115 0.88168299 9.5262146
-1.2973871 0.90060824 9.6620398
-1.255646 0.91422451 9.7893372
-1.2104018 0.92647541 9.9139709
-1.1366496 0.92914206 10.025045
-1.0419989 0.92492563 10.12694
-0.89985615 0.90532815 10.209364
-0.67596656 0.85962212 10.260222
-0.366 0.78697747 10.280787
0.036699951 0.68584651 10.271563
0.42864794 0.58953226 10.27385
0.90754992 0.46727198 10.252277
-1.7278609 -0.91699338 0.51421261
-1.8461227 -0.79450822 0.98656321
-1.8881261 -0.71371305 1.3454385
-1.918318 -0.64064729 1.6802197
-1.9476447 -0.56958222 2.0058842
-1.9762807 -0.5003686 2.3229675
-1.9839995 -0.44285822 2.6075521
-1.9914579 -0.38667029 2.8857021
-1.9988852 -0.33165377 3.1578896
-2.006062 -0.27787668 3.4240544
-2.0129547 -0.22531821 3.6843472
-2.0198305 -0.17381702 3.939244
-2.0214946 -0.1257356 4.1834621
-2.022579 -0.078860417 4.4222598
-2.013571 -0.037455007 4.6462841
-2.0043478 0.0030590892 4.8660226
-1.9737859 0.033341527 5.0613585
-1.9412339 0.062179208 5.2519045
-1.8930809 0.083691299 5.4254026
-1.8421667 0.10361502 5.594388
-1.7833598 0.11980246 5.7545938
-1.7222807 0.1347346 5.9113517
-1.6600294 0.14890623 6.0657516
-1.6014593 0.16435577 6.2218652
-1.5579913 0.18575446 6.388628
-1.6132917 0.24711771 6.6304531
-1.7131982 0.32547492 6.900773
-1.7671847 0.38405168 7.130044
-1.7828121 0.42636275 7.3263483
-1.7981291 0.46783531 7.5187626
-1.7893817 0.49919587 7.6909676
-1.7784009 0.52916747 7.8589883
-1.7659349 0.55807322 8.0234976
-1.7404845 0.58154976 8.1772404
-1.7152905 0.60474223 8.3291903
-1.6903846 0.62766927 8.4794025
-1.6491935 0.64416319 8.6180382
-1.6065674 0.65986562 8.7545033
-1.5643146 0.67545772 8.8899117
-1.4997644 0.68269455 9.0117931
-1.4381344 0.69087356 9.1346664
-1.4309161 0.71841806 9.2853069
-1.4196775 0.74411368 9.4317532
-1.4002352 0.76652598 9.5721493
-1.3741124 0.78626245 9.7076092
-1.3302908 0.79955387 9.8332882
-1.2745368 0.80853212 9.9525394
-1.200923 0.81126285 10.063234
-1.0852106 0.7996428 10.155687
-0.92534679 0.77329063 10.230639
-0.6824351 0.71949172 10.274029
-0.31406146 0.62472379 10.272273
0.13790256 0.50368798 10.245708
0.47843891 0.42090112 10.268784
0.9163757 0.30754834 10.263165
-1.6314704 -1.1166039 0.67399788
-1.7719162 -0.97892225 1.1697063
-1.8101494 -0.89792418 1.5196443
-1.8413815 -0.82230902 1.8521857
-1.8718619 -0.74869275 2.1758387
-1.9014359 -0.67709088 2.4907308
-1.9302297 -0.60737658 2.797323
-1.9583209 -0.53945261 3.0959921
-1.9776525 -0.47723609 3.3779719
-1.984942 -0.42215586 3.6405149
-1.9920299 -0.36827642 3.8973885
-1.9948895 -0.31748915 4.1445413
-1.9963729 -0.26835108 4.3853536
-1.9891024 -0.22427474 4.6126585
-1.9799969 -0.1819004 4.8339658
-1.9580789 -0.14622889 5.0389886
-1.9333787 -0.11250015 5.2380686
-1.8918457 -0.087001607 5.4186001
-1.845717 -0.064031824 5.5926752
-1.7906053 -0.045465156 5.7567973
-1.7328613 -0.028392211 5.9169979
-1.6737111 -0.012239844 6.0744982
-1.6198828 0.0059189647 6.2349195
-1.582613 0.030833468 6.4069653
-1.6457298 0.097840741 6.6550961
-1.7407625 0.17708506 6.9217567
-1.7906756 0.23617466 7.1481156
-1.8060818 0.28000855 7.3444343
-1.8202331 0.32258439 7.5361857
-1.8168581 0.3573305 7.7122784
-1.8134632 0.39148849 7.8854923
-1.8055878 0.42329264 8.0529623
-1.7867756 0.45024544 8.2108316
-1.7661052 0.47602952 8.3653679
-1.7383435 0.49863541 8.5135183
-1.6952884 0.51497084 8.6507797
-1.6525371 0.53116274 8.7869329
-1.6101222 0.54722732 8.9220161
-1.5382609 0.55193156 9.0396547
-1.4951036 0.56730753 9.1723099
-1.4834607 0.59415227 9.3202286
-1.4706924 0.62017184 9.4655476
-1.4499695 0.64288688 9.60499
-1.4215655 0.662471 9.7390556
-1.3846598 0.67869866 9.8677073
-1.3277693 0.68753773 9.9861088
-1.2615557 0.69293678 10.09976
-1.1282897 0.67462486 10.184353
-0.94418603 0.63879174 10.249166
-0.67358118 0.57342809 10.281716
-0.21593887 0.44449508 10.245905
-0.14875132 0.45109499 10.36677
-0.077698052 0.45628732 10.48576
-0.015531242 0.46440738 10.607539
-1.4518228 -1.3626798 0.72575426
-1.590302 -1.2218881 1.2151084
-1.6743481 -1.1134702 1.6216159
-1.7504239 -1.0116222 2.0072703
-1.7958932 -0.92807233 2.3458869
-1.826453 -0.85405421 2.6586447
-1.8563917 -0.78189224 2.9633689
-1.8854136 -0.71168029 3.26
-1.9137797 -0.64322686 3.5491078
-1.9411173 -0.57666588 3.8305447
-1.9640419 -0.51361853 4.1010256
-1.9698367 -0.46022493 4.3479824
-1.9644222 -0.41332388 4.5787086
-1.9553106 -0.36910963 4.8014817
-1.9358375 -0.33068323 5.0102701
-1.9111969 -0.29542679 5.2107334
-1.8725905 -0.26736754 5.3952274
-1.8262258 -0.24342702 5.5702763
-1.7724817 -0.22331737 5.7367535
-1.7145061 -0.20550101 5.8978558
-1.6553237 -0.18855138 6.0564113
-1.599617 -0.17035277 6.2163558
-1.5616763 -0.14460902 6.388936
-1.6490581 -0.06429936 6.6570473
-1.7683632 0.028499171 6.9427686
-1.8142133 0.087999567 7.1662235
-1.8294377 0.13337918 7.3625832
-1.8416259 0.17669816 7.5531082
-1.8380358 0.21265091 7.729239
-1.8345039 0.24802585 7.9025383
-1.8248627 0.28028709 8.0690174
-1.8059027 0.30819535 8.226984
-1.7871499 0.33573151 8.3829041
-1.7632449 0.36074311 8.533556
-1.7258184 0.37994128 8.6742535
-1.6887646 0.39898127 8.8137054
-1.6459324 0.41544396 8.9484615
-1.5767443 0.42134869 9.0675011
-1.547806 0.44276804 9.2076378
-1.5358014 0.47037137 9.3550129
-1.5205026 0.49629408 9.498704
-1.4995697 0.51968753 9.6377363
-1.4669962 0.53835034 9.7695055
-1.4299171 0.5550518 9.8978424
-1.3660777 0.56159192 10.012884
-1.2854095 0.56184715 10.12007
-1.1573718 0.54480875 10.207026
-0.96016663 0.50295573 10.266534
-0.63014466 0.41392893 10.275597
-0.36198705 0.34827393 10.314827
-0.31312937 0.36132002 10.441208
-0.3025021 0.38764215 10.580666
-0.28064114 0.40966702 10.714393
-0.24803144 0.4276529 10.842981
-0.21916229 0.44667935 10.971619
-0.20345098 0.46995002 11.103207
-0.20973498 0.50038236 11.240047
0.037448108 0.44478858 11.299692
-1.2442188 -1.5596015 1.0594416
-1.4912956 -1.3568319 1.6687903
-1.5712376 -1.2496808 2.0572925
-1.6482134 -1.1463871 2.4319241
-1.722667 -1.0465941 2.7937465
-1.782465 -0.95661628 3.1296134
-1.8124673 -0.88408744 3.4242542
-1.8416073 -0.81347024 3.7112229
-1.8692997 -0.74500859 3.9901657
-1.8894825 -0.68172008 4.255147
-1.9044456 -0.62230009 4.5091677
-1.9091721 -0.56913698 4.7478166
-1.904366 -0.52170312 4.9726005
-1.8884642 -0.48059922 5.1828055
-1.853127 -0.44968641 5.371603
-1.8065662 -0.42473805 5.5476727
-1.7541695 -0.40302682 5.7164998
-1.6960013 -0.38443273 5.878551
-1.6368315 -0.3666442 6.038208
-1.5790937 -0.34851366 6.1975594
-1.5362587 -0.3238731 6.3673172
-1.6092479 -0.24702902 6.6253643
-1.7442594 -0.14359216 6.9244194
-1.8143876 -0.070928916 7.1669693
-1.845278 -0.016889766 7.3752837
-1.8630295 0.030458823 7.5700431
-1.859262 0.067639723 7.7462392
-1.855593 0.10423811 7.9196234
-1.844188 0.13691612 8.0851135
-1.8250427 0.16576888 8.2431526
-1.8061795 0.19426753 8.3991909
-1.7800424 0.21926583 8.5486622
-1.742449 0.23911615 8.6894722
-1.7052312 0.25880319 8.8290367
-1.65872 0.27438986 8.9619236
-1.5902743 0.28086126 9.0816402
-1.5757439 0.30886382 9.229702
-1.5708661 0.34027588 9.3807869
-1.5606368 0.36909038 9.5269375
-1.5462275 0.39582622 9.6690063
-1.5123036 0.41456443 9.7998734
-1.470489 0.42997408 9.9257755
-1.4042969 0.43581021 10.039606
-1.3092921 0.43059862 10.140404
-1.1699636 0.40872502 10.222683
-0.94999236 0.35693896 10.273126
-0.55411536 0.24043627 10.256571
-0.44465417 0.23143823 10.358917
-0.42284256 0.25472319 10.494816
-0.41193551 0.28165025 10.633163
-0.39734155 0.30686438 10.768465
-0.38441235 0.33232403 10.902712
-0.37256223 0.35781521 11.035685
-0.3747831 0.3879388 11.171511
-0.32930881 0.4008714 11.290812
0.067207754 0.29097718 11.305534
-1.2141495 -1.5901067 1.9031992
-1.4694605 -1.3839371 2.4859898
-1.547539 -1.2791268 2.8501964
-1.623317 -1.1777101 3.2023103
-1.6965768 -1.0797009 3.5425568
-1.7671254 -0.98509908 3.8711913
-1.7936788 -0.91552091 4.1461754
-1.8147748 -0.85015404 4.4095726
-1.8217463 -0.79334664 4.6534066
-1.8260288 -0.73900867 4.8897734
-1.8101993 -0.69588482 5.1026192
-1.7908311 -0.65535074 5.3085794
-1.7473745 -0.62753576 5.4895382
-1.7016103 -0.60137272 5.666172
-1.643914 -0.58150601 5.8304386
-1.5856748 -0.56226385 5.9926376
-1.526283 -0.54392105 6.1523457
-1.4837413 -0.51791537 6.3240447
-1.5458136 -0.44319963 6.5752506
-1.7119267 -0.32132572 6.8998046
-1.787514 -0.24338551 7.1476173
-1.8189335 -0.18701516 7.3573885
-1.8456213 -0.13375865 7.5595074
-1.8537152 -0.089776024 7.744751
-1.8616228 -0.046617731 7.926569
-1.8591061 -0.0087939948 8.0983219
-1.8442311 0.022979155 8.2593632
-1.8252206 0.05242981 8.415494
-1.7968893 0.077376857 8.5638113
-1.7591653 0.097897902 8.7047567
-1.7217817 0.11823435 8.8444328
-1.6715519 0.13283379 8.9754333
-1.6029668 0.13952817 9.0953426
-1.5956528 0.1715342 9.247488
-1.5905886 0.20396806 9.3985844
-1.5790954 0.23327596 9.5442047
-1.5634377 0.26044792 9.6857834
-1.5316207 0.28070778 9.8178043
-1.4905896 0.29698384 9.9441891
-1.4288855 0.30482626 10.060171
-1.3254416 0.29613793 10.157364
-1.1731513 0.26851052 10.234377
-0.93411809 0.20767541 10.277448
-0.50875276 0.076046303 10.250008
-0.48420125 0.099387839 10.386211
-0.48465329 0.13187571 10.530301
-0.47813493 0.16127743 10.669804
-0.46989018 0.18961854 10.80685
-0.46399099 0.21843328 10.942926
-0.46477085 0.2493089 11.079406
-0.47898751 0.28467619 11.218239
-0.33362156 0.26154143 11.306164
0.14427704 0.11865403 11.297594
-1.1548674 -1.6363204 2.6718426
-1.4218714 -1.4245878 3.2336702
-1.5258088 -1.3066909 3.6052732
-1.5996621 -1.2075043 3.9357541
-1.6592436 -1.1179608 4.2434196
-1.70665 -1.0366598 4.5315537
-1.7378206 -0.96550584 4.7972822
-1.7305646 -0.91581154 5.0209975
-1.7154157 -0.87114966 5.2333903
-1.6786528 -0.83841848 5.4227548
-1.6358032 -0.80939138 5.6041503
-1.5803986 -0.78722382 5.7724733
-1.5228019 -0.76655555 5.9372144
-1.4629955 -0.74735457 6.0985332
-1.413743 -0.7233271 6.2667909
-1.4159757 -0.67472118 6.47335
-1.6432858 -0.51861942 6.8475518
-1.7603245 -0.41787034 7.1280375
-1.7922432 -0.35913539 7.3392563
-1.8212326 -0.30278468 7.5440483
-1.8295972 -0.25698501 7.7304573
-1.8378088 -0.21203022 7.9134264
-1.836745 -0.17206983 8.0870533
-1.8262615 -0.13704465 8.2517843
-1.8158932 -0.10254507 8.4140968
-1.7943144 -0.073609635 8.5671558
-1.762064 -0.049864337 8.7118626
-1.7301023 -0.026374027 8.855092
-1.6803942 -0.01098381 8.986721
-1.6132333 -0.0033744425 9.1077423
-1.6155689 0.033891752 9.2652912
-1.6103897 0.067382231 9.41644
-1.5975592 0.097127393 9.5614958
-1.5796468 0.12428845 9.7020912
-1.5476398 0.14518078 9.8341818
-1.5026486 0.16040422 9.9588966
-1.4408529 0.16852351 10.075068
-1.328892 0.15614815 10.168803
-1.1664255 0.12359603 10.241922
-0.91400129 0.055523172 10.280117
-0.50616044 -0.073297903 10.260645
-0.48463911 -0.047898695 10.398386
-0.50340956 -0.0070882291 10.549623
-0.50764352 0.02748926 10.69309
-0.50683957 0.059632733 10.832685
-0.50915581 0.092520133 10.971388
-0.52151519 0.12877126 11.111395
-0.53919131 0.16652961 11.250914
-0.27655536 0.098544613 11.302902
-0.067717373 0.051545933 11.37467
-1.0966265 -1.6813986 3.4061952
-1.3598537 -1.4726403 3.9319038
-1.4886775 -1.3419901 4.3080945
-1.5334294 -1.2597241 4.5927372
-1.567117 -1.1850175 4.8603582
-1.5677297 -1.1294266 5.0916238
-1.5602551 -1.0791709 5.3112411
-1.5187043 -1.047743 5.4970245
-1.4723833 -1.0193775 5.6762881
-1.4112751 -0.99915266 5.8409925
-1.3491361 -0.97982216 6.0033174
-1.285327 -0.9616847 6.1628547
-1.2461593 -0.93151498 6.3402538
-1.4810324 -0.76567608 6.7240367
-1.657202 -0.63166952 7.0520444
-1.733125 -0.54895264 7.2976232
-1.7906654 -0.47656268 7.5242381
-1.8052118 -0.42604905 7.7160058
-1.8136942 -0.37927836 7.9001136
-1.8141453 -0.33708447 8.0756645
-1.8038106 -0.30064201 8.241374
-1.7935894 -0.26475018 8.4046364
-1.7732592 -0.23410027 8.5592947
-1.7409146 -0.20943432 8.7047539
-1.7089736 -0.18498431 8.8487825
-1.6604912 -0.16835676 8.981884
-1.5930729 -0.16043358 9.1035223
-1.6009927 -0.11932103 9.2647486
-1.6062982 -0.079998359 9.421936
-1.6020761 -0.045433387 9.5717793
-1.5903244 -0.014653251 9.7157116
-1.5637035 0.009282425 9.850605
-1.5147498 0.023354128 9.9736557
-1.4528248 0.031737283 10.089996
-1.3324313 0.015492454 10.180332
-1.1561267 -0.023769662 10.248025
-0.8890546 -0.099932715 10.280904
-0.43543905 -0.25144684 10.244267
-0.43167764 -0.21770726 10.390059
-0.46311229 -0.17023383 10.546949
-0.48731095 -0.12634139 10.698395
-0.50116688 -0.087191269 10.843631
-0.51479727 -0.048682198 10.986488
-0.54135686 -0.0056348294 11.131306
-0.55954653 0.033550635 11.270996
-0.16956693 -0.085876271 11.284718
0.22369677 -0.20492898 11.304316
-1.2127107 -1.5675929 4.5196486
-1.3353319 -1.4407885 4.8717065
-1.3704313 -1.3642389 5.1353717
-1.3698275 -1.3084632 5.3618703
-1.3254297 -1.2772243 5.5466061
-1.2642741 -1.2554696 5.7149758
-1.1887425 -1.2416849 5.869977
-1.110656 -1.2294835 6.0219278
-1.0311297 -1.2182459 6.1718707
-0.99231619 -1.1863329 6.3519979
-1.5239664 -0.86506116 6.9536943
-1.6355369 -0.76102757 7.2281218
-1.6951756 -0.68473136 7.4585257
-1.7312622 -0.6214059 7.6673789
-1.7575574 -0.56396472 7.865283
-1.7763906 -0.51112521 8.0543671
-1.7771561 -0.4678908 8.2283173
-1.7710125 -0.42868155 8.3950539
-1.7519875 -0.39623338 8.5513535
-1.7196257 -0.37059462 8.6976166
-1.6876299 -0.34519994 8.842411
-1.6403928 -0.32727534 8.9769974
-1.5726764 -0.3190487 9.0992413
-1.5783672 -0.27747828 9.2599878
-1.5838516 -0.23665313 9.4179897
-1.5800302 -0.2006406 9.5687399
-1.5686934 -0.16853176 9.7135668
-1.5424874 -0.14348756 9.8493366
-1.4969811 -0.12729071 9.974659
-1.4368808 -0.1176918 10.092451
-1.3112662 -0.13654606 10.181164
-1.1318181 -0.17820869 10.248295
-0.85992295 -0.25861394 10.280088
-0.43394285 -0.40295953 10.255545
-0.032528698 -0.53489971 10.248932
0.31054538 -0.64063609 10.271719
-0.37022167 -0.32147264 10.669002
-0.41797036 -0.26675773 10.82769
-0.46289474 -0.21396719 10.982304
-0.50797302 -0.1618555 11.133966
-0.53925139 -0.11601685 11.278373
-0.1843453 -0.22498576 11.303623
-0.82874888 -1.6760077 5.3470802
-0.72557348 -1.674431 5.4888039
-0.62174273 -1.6732354 5.6298904
-1.4627142 -1.0162722 7.1041126
-1.5900297 -0.90185213 7.3860292
-1.6441493 -0.82675838 7.6097212
-1.6716311 -0.76642478 7.8104625
-1.6982782 -0.70753133 8.0066471
-1.6997564 -0.66214806 8.1828594
-1.7011714 -0.61755115 8.3560677
-1.6967003 -0.57657051 8.5228119
-1.669337 -0.54737061 8.6733837
-1.6422794 -0.51849729 8.8222704
-1.6019332 -0.49643397 8.9618797
-1.5315282 -0.48896074 9.0837021
-1.5411625 -0.44399536 9.2475595
-1.5612144 -0.39488024 9.4140224
-1.5577626 -0.35740381 9.5656719
-1.5468104 -0.32395029 9.7113829
-1.5206637 -0.29793137 9.847868
-1.4752281 -0.28102767 9.9739094
-1.4149153 -0.27105302 10.092293
-1.2885613 -0.29063016 10.181423
-1.1006751 -0.33710575 10.245792
-0.82607192 -0.42092913 10.277464
-0.44465786 -0.5500263 10.271721
-0.055343688 -0.6806553 10.270342
0.34893543 -0.81581521 10.270835
-0.34940535 -0.37184852 11.096292
-0.46352917 -0.28977054 11.268578
-0.13190097 -0.39214009 11.302355
-1.3434067 -1.1983106 7.2135544
-1.4690152 -1.0820936 7.4914227
-1.5408096 -0.99591303 7.725522
-1.6040113 -0.91563606 7.9484115
-1.6207089 -0.86053896 8.1364355
-1.6228144 -0.81377673 8.3118668
-1.6249218 -0.76778764 8.4843502
-1.5989246 -0.73660022 8.6373472
-1.571965 -0.70639759 8.7878551
-1.5414197 -0.67844611 8.9344959
-1.4704933 -0.67063904 9.0574169
-1.4616303 -0.63292444 9.2127781
-1.4829705 -0.58130491 9.3814526
-1.4946263 -0.53510618 9.5421906
-1.4969549 -0.49403316 9.6956491
-1.4766228 -0.46422058 9.8359661
-1.4357715 -0.44441289 9.9651108
-1.3736336 -0.43473721 10.083607
-1.2419889 -0.45706731 10.171444
-1.0577905 -0.50297308 10.238476
-0.78601724 -0.58774471 10.272444
-0.43181306 -0.70821714 10.278648
-0.038395584 -0.84437716 10.276583
-1.3305846 -1.2730331 7.587306
-1.3985317 -1.1867638 7.8173923
-1.4572732 -1.106806 8.0362072
-1.479944 -1.0470514 8.2276201
-1.5025401 -0.98832822 8.4153128
-1.498873 -0.94408107 8.5839205
-1.4774985 -0.90958953 8.7396755
-1.4564269 -0.87550426 8.893528
-1.3875053 -0.86598516 9.0193014
-1.3528681 -0.83954597 9.162672
-1.4029114 -0.77169234 9.3481083
-1.4183629 -0.7218582 9.5122814
-1.4247119 -0.67722678 9.6691532
-1.4058809 -0.64543587 9.8115692
-1.3720984 -0.62129229 9.9453201
-1.3093896 -0.61126208 10.064823
-1.1888256 -0.6286698 10.158762
-1.001431 -0.67709923 10.225657
-0.74164754 -0.75844026 10.265814
-0.38074344 -0.88521409 10.270625
0.053280771 -1.0436037 10.254457
-1.0767784 -1.476768 7.797605
-1.2505565 -1.332134 8.0897303
-1.3217318 -1.2446407 8.3110399
-1.3435662 -1.1846955 8.498045
-1.3228816 -1.1480416 8.6570988
-1.3024566 -1.1118488 8.8141546
-1.2634574 -1.0858278 8.9590101
-1.1820427 -1.081944 9.0799313
-1.2185099 -1.0182333 9.2612629
-1.2713373 -0.94728005 9.4471626
-1.298696 -0.890172 9.616703
-1.3003578 -0.84670043 9.7709351
-1.2839839 -0.81277823 9.9144983
-1.2131143 -0.80600309 10.031971
-1.0999279 -0.81985188 10.130825
-0.93195349 -0.85986209 10.20752
-0.64545935 -0.9558934 10.238337
-0.26424819 -1.0954154 10.237095
-1.0029106 -1.4811636 8.4798841
