# .PCD v0.7 - Point Cloud Data file format
VERSION 0.7
FIELDS x y z
SIZE 4 4 4
TYPE F F F
COUNT 1 1 1
WIDTH 1418
HEIGHT 1
VIEWPOINT 0 0 0 1 0 0 0
POINTS 1418
DATA ascii
-0.79056549 -0.81606019 -3.6443989
-0.94152927 -0.63913649 -3.4627595
-1.1337075 -0.17416435 -2.9853947
1.2725016 -0.28745347 -2.8998268
1.0841182 -0.66249114 -3.2932482
0.9292748 -0.83878028 -3.4781785
0.78465754 -0.96501017 -3.6105959
0.64821547 -1.037354 -3.686486
0.5143255 -1.1051415 -3.757596
0.38411766 -1.139756 -3.7939072
0.25517824 -1.1684968 -3.8240569
0.12738919 -1.1812317 -3.8374159
2.2553934e-07 -1.1773051 -3.8332968
-0.12753418 -1.1719613 -3.8276911
-0.25623378 -1.1348048 -3.7887132
-0.38611656 -1.0972042 -3.7492697
-0.51908064 -1.0292505 -3.677985
-0.65515685 -0.94871426 -3.5935011
-0.7983532 -0.81927967 -3.4577219
-0.95126176 -0.63823938 -3.2678075
-1.1477656 -0.1545555 -2.7604146
1.2873317 -0.27570039 -2.6811793
1.0953023 -0.6626749 -3.0959556
0.93845999 -0.84258109 -3.2887869
0.7922973 -0.96998298 -3.4253418
0.65441382 -1.0437176 -3.504374
0.51920211 -1.1120956 -3.5776644
0.38772783 -1.1473484 -3.6154499
0.25756913 -1.176298 -3.6464794
0.12857968 -1.1892412 -3.6603525
5.086614e-07 -1.1852809 -3.6561079
-0.12872949 -1.1797577 -3.6501877
-0.25864542 -1.1422863 -3.6100245
-0.38976756 -1.1043652 -3.5693789
-0.52405667 -1.0354018 -3.4954607
-0.66149753 -0.95418245 -3.4084063
-0.80629164 -0.82260078 -3.2673712
-0.96119785 -0.63732445 -3.0687838
-1.1621816 -0.1344105 -2.5297387
1.3025095 -0.26367116 -2.4573765
1.1067199 -0.66286349 -2.8945508
0.9478296 -0.84645772 -3.0956137
0.80008781 -0.97505325 -3.236445
0.66072822 -1.0502393 -3.3187847
0.52417052 -1.1192164 -3.3943248
0.39140725 -1.1550852 -3.4336064
0.2600047 -1.1842803 -3.4655795
0.12979268 -1.1974015 -3.479949
-4.7481524e-07 -1.1934081 -3.4755757
-0.12994732 -1.1877012 -3.4693255
-0.26110351 -1.1499109 -3.4279399
-0.3934896 -1.1116638 -3.3860531
-0.52913046 -1.0416725 -3.3094027
-0.66796231 -0.95975751 -3.2196937
-0.81439286 -0.82595044 -3.0731554
-0.97134262 -0.63638985 -2.8655584
1.1183835 -0.66301477 -2.6888571
0.95738804 -0.85041249 -2.8985443
0.80803174 -0.98022449 -3.0437965
0.66716611 -1.0568879 -3.1295788
0.52923465 -1.1264759 -3.2074437
0.39515659 -1.1629699 -3.2482786
0.26248646 -1.1924152 -3.2812262
0.13102828 -1.2057171 -3.2961102
-7.2483886e-08 -1.2016901 -3.2916038
-0.13118817 -1.1958317 -3.2850487
-0.26360863 -1.1576819 -3.2423615
-0.39728439 -1.119067 -3.1991534
-0.53430271 -1.0480661 -3.1197076
-0.67455685 -0.965406 -3.0272155
-0.82265806 -0.82936949 -2.8749981
-0.98170501 -0.63543582 -2.6579974
1.1302906 -0.66321003 -2.478828
0.96714085 -0.85444808 -2.6974599
0.81614035 -0.98546219 -2.8472414
0.67373353 -1.0636315 -2.9366083
0.53439933 -1.133841 -3.016875
0.39897966 -1.1710075 -3.0593655
0.26501638 -1.2007072 -3.0933199
0.13228719 -1.2142274 -3.1087766
5.6826605e-07 -1.2101307 -3.1040931
-0.13245276 -1.2040833 -3.0971794
-0.26616329 -1.1655678 -3.0531468
-0.40115169 -1.1266499 -3.0086541
-0.53957516 -1.0546219 -2.9263082
-0.68128103 -0.97120428 -2.8309412
-0.83109355 -0.83285642 -2.6727755
-0.99228942 -0.63446009 -2.4459596
0.97709477 -0.85856616 -2.4922359
0.82440853 -0.99084336 -2.6467454
0.68042839 -1.0705453 -2.7398434
0.53966433 -1.1413875 -2.822592
0.40287632 -1.1792018 -2.8667624
0.26759475 -1.2091607 -2.9017565
0.13357121 -1.2228676 -2.917767
-2.7780402e-08 -1.2187011 -2.9129002
-0.13374236 -1.2124953 -2.9056516
-0.26876715 -1.1736438 -2.8602703
-0.4050954 -1.1343834 -2.8144107
-0.54495209 -1.0613077 -2.7290533
-0.6881395 -0.97711885 -2.6307142
-0.83969903 -0.8364557 -2.4664094
0.83284581 -0.99633467 -2.4421453
0.68725789 -1.0775981 -2.5391288
0.54503661 -1.1490473 -2.6243992
0.40684977 -1.1875579 -2.6703596
0.27022502 -1.2177795 -2.7064276
0.13488004 -1.231678 -2.7230144
-3.8540827e-07 -1.2274746 -2.7179978
-0.13505715 -1.2210732 -2.7103579
-0.27142236 -1.1818798 -2.6635833
-0.40911889 -1.1422327 -2.6162667
-0.55044019 -1.0680926 -2.5277843
-0.69514072 -0.98311603 -2.4263699
0.87162882 -0.70390451 -1.8698988
0.69893879 -1.0289174 -2.2662106
0.55051434 -1.1568983 -2.4222662
0.41090283 -1.1960802 -2.4700441
0.27290565 -1.2265708 -2.5072231
0.13621494 -1.2406622 -2.5244057
-2.6619898e-07 -1.2364217 -2.5192351
-0.13639748 -1.2298571 -2.5112302
-0.27413151 -1.1902435 -2.4629266
-0.41322052 -1.1502764 -2.4141917
-0.5614025 -0.99555564 -2.2255297
-0.73726124 -0.57464838 -1.7122879
0.73152941 -0.73817062 -1.6843662
0.56888056 -0.97767031 -1.9827538
0.42019489 -1.1039959 -2.1401396
0.2781468 -1.1621194 -2.2125542
0.1384182 -1.2005584 -2.2604444
-1.1718737e-07 -1.1872625 -2.24388
-0.13888252 -1.173264 -2.2264395
-0.28082019 -1.0837636 -2.1149325
-0.4270587 -0.96986914 -1.9730344
-0.58847409 -0.69053292 -1.6250157
0.59062916 -0.75540757 -1.4738693
0.43421835 -0.92453015 -1.6891584
0.28701127 -0.99606991 -1.7802277
0.14266437 -1.0447961 -1.8422549
-2.960013e-07 -1.0308282 -1.8244743
-0.14349151 -0.99684274 -1.7812114
-0.29024434 -0.90233374 -1.660903
-0.44546115 -0.70730042 -1.4126291
0.45112091 -0.69619083 -1.1595855
0.29645717 -0.81912911 -1.3194911
0.14718121 -0.87913179 -1.3975368
-5.7582724e-08 -0.86447251 -1.3784695
-0.14841622 -0.8083514 -1.3054724
-0.3014605 -0.67574799 -1.1329951
0.47287178 -0.38365722 -0.49979639
0.30654609 -0.63014603 -0.82739592
0.1520828 -0.69763017 -0.9170866
8.3648695e-07 -0.68709421 -0.90308332
-0.15368986 -0.60654891 -0.79603338
-0.31881869 -0.28246975 -0.3653121
0.49688601 -0.038315058 0.22839069
0.31903827 -0.38047361 -0.23628902
0.15739799 -0.4992702 -0.39762545
7.1727766e-07 -0.49747252 -0.39518404
-0.16017067 -0.34400773 -0.18676519
-0.33125484 -0.038364887 0.22832298
0.491992 -0.23682594 0.22845984
0.32675219 -0.27120972 0.18074226
0.16194618 -0.35035777 0.070901394
5.9806837e-07 -0.34626651 0.076579571
-0.16370952 -0.25275445 0.20635509
-0.3281492 -0.23253345 0.23441696
0.32532907 -0.41686583 0.24923134
0.16239846 -0.43141699 0.22859478
4.7885908e-07 -0.43155694 0.22839594
-0.16290402 -0.40377116 0.26780224
-1.1703733 -0.34122157 -7.8254809
-1.1994323 -0.18885151 -7.739399
-1.2065134 0.07733357 -7.6618371
-1.0630317 -0.59877157 -7.843853
-1.1035669 -0.51187825 -7.7530375
-1.1448562 -0.42406923 -7.6607208
-1.1743503 -0.27750099 -7.5723472
-1.2039032 -0.12357795 -7.4819088
-0.94357681 -0.78143919 -7.8697667
-0.98953366 -0.72543997 -7.7770238
-1.0311275 -0.64848244 -7.6855154
-1.0713651 -0.56201702 -7.5935278
-1.1122559 -0.4742133 -7.5000668
-1.1494762 -0.36541751 -7.4066753
-1.1784029 -0.21257371 -7.3144178
-1.1937172 0.01312393 -7.2238617
-0.86238843 -0.86798567 -7.808115
-0.90772337 -0.81267917 -7.7154593
-0.95352966 -0.75679719 -7.6218405
-0.99926859 -0.69806671 -7.5274539
-1.0392292 -0.61211157 -7.4342899
-1.0798268 -0.52478302 -7.3396397
-1.1213505 -0.4372592 -7.2433863
-1.1532769 -0.30159011 -7.1482596
-1.1828635 -0.14794993 -7.0514822
-1.175846 0.18949664 -6.9589472
-0.7324937 -0.98904991 -7.8409958
-0.78177667 -0.95330667 -7.7470541
-0.82662684 -0.89915758 -7.6544313
-0.87181181 -0.84396803 -7.5609069
-0.91745859 -0.78816426 -7.4664106
-0.96366394 -0.73210454 -7.3708982
-1.0071483 -0.66211867 -7.2753296
-1.0474552 -0.57526541 -7.1794939
-1.0884002 -0.48697329 -7.0821199
-1.1283592 -0.3898668 -6.9834824
-1.1571499 -0.23654661 -6.8849225
-1.1808736 -0.051320732 -6.7842865
-0.59608996 -1.0789258 -7.8772173
-0.64460921 -1.0434234 -7.7838802
-0.69345939 -1.0076809 -7.6899061
-0.74264282 -0.97169423 -7.5952916
-0.79080778 -0.93037874 -7.5005045
-0.83584386 -0.87530744 -7.4061074
-0.88133895 -0.81962222 -7.310729
-0.92732126 -0.7633937 -7.2143478
-0.97413224 -0.70798165 -7.1168718
-1.0151298 -0.62561715 -7.019629
-1.0557895 -0.53784984 -6.9210539
-1.0975411 -0.45057079 -6.8208294
-1.1319799 -0.32593361 -6.7196875
-1.1616106 -0.17262441 -6.6164989
-1.162411 0.12564254 -6.5105062
-0.50870609 -1.1325265 -7.8203735
-0.55697656 -1.0976431 -7.7269273
-0.60545838 -1.0621353 -7.6328959
-0.6542716 -1.0263858 -7.5382223
-0.70341784 -0.99039167 -7.4429026
-0.75306278 -0.95474654 -7.3468819
-0.79980791 -0.90665716 -7.2510638
-0.84516186 -0.85113066 -7.1547971
-0.89099163 -0.79502189 -7.0575209
-0.93748981 -0.73906642 -6.959187
-0.98287064 -0.67592341 -6.8600407
-1.0232351 -0.58863658 -6.760273
-1.0644031 -0.50058532 -6.6588807
-1.106813 -0.41365373 -6.5558357
-1.1356699 -0.26077628 -6.4508414
-1.1664746 -0.10897082 -6.3430004
-0.36169583 -1.1813655 -7.8616714
-0.41382298 -1.1609088 -7.766727
-0.46615732 -1.1403725 -7.6714053
-0.51772159 -1.116472 -7.5760441
-0.56616545 -1.0809588 -7.4813147
-0.61494017 -1.0452038 -7.3859377
-0.66404927 -1.0092033 -7.2899075
-0.71352828 -0.97307479 -7.1932101
-0.76367033 -0.93789631 -7.0957808
-0.80892706 -0.88268995 -6.9986143
-0.85460335 -0.8267014 -6.9004402
-0.90079302 -0.77024645 -6.8012276
-0.9478628 -0.71477818 -6.7009354
-0.99072909 -0.63929272 -6.5997729
-1.0314479 -0.55108142 -6.4971828
-1.0734322 -0.46405059 -6.3929467
-1.1104572 -0.35053667 -6.2865567
-1.1401318 -0.19756225 -6.1768904
-1.1489127 0.061580062 -6.0602741
-0.26678729 -1.2098849 -7.8081045
-0.31878093 -1.1894643 -7.7129564
-0.37098062 -1.1689641 -7.6174316
-0.4233869 -1.1483818 -7.5215292
-0.47610679 -1.1280664 -7.4252138
-0.52670616 -1.0998179 -7.3291407
-0.57544255 -1.0640569 -7.2330551
-0.62451303 -1.0280495 -7.1363096
-0.67392135 -0.99179393 -7.0388985
-0.72393411 -0.95624787 -6.940774
-0.77263314 -0.91429889 -6.8421822
-0.81814545 -0.85839128 -6.7431078
-0.86414921 -0.80193365 -6.6429863
-0.91095471 -0.74612498 -6.5417976
-0.95828944 -0.68990177 -6.4395547
-0.99871069 -0.60217774 -6.3357611
-1.0401144 -0.5144136 -6.2303128
-1.0825903 -0.42699483 -6.1232204
-1.1139899 -0.28540164 -6.012105
-1.144819 -0.13380051 -5.8977866
-0.11285028 -1.2376642 -7.8521566
-0.16927952 -1.2312707 -7.7552977
-0.22353283 -1.2180403 -7.6590805
-0.27560982 -1.1976138 -7.5633478
-0.32787985 -1.1770663 -7.4672394
-0.38035893 -1.1564391 -7.3707485
-0.43304655 -1.1357286 -7.2738733
-0.48626095 -1.1159879 -7.1765437
-0.5357883 -1.082984 -7.0795665
-0.58482015 -1.0469707 -6.9821014
-0.63418996 -1.0107083 -6.8839636
-0.68403512 -0.97467482 -6.7851334
-0.73445278 -0.93924034 -6.6856108
-0.78163975 -0.89017344 -6.5855188
-0.82748753 -0.83383763 -6.4844837
-0.87397164 -0.77748561 -6.3823819
-0.92123896 -0.72171116 -6.2792258
-0.9660309 -0.65318346 -6.1746254
-1.0068381 -0.56465405 -6.0679307
-1.0490272 -0.47774518 -5.9596405
-1.0887041 -0.37540221 -5.8487968
-1.1184134 -0.22272077 -5.7325792
-1.1353705 -0.0027859211 -5.6082435
-0.0086302161 -1.2410309 -7.8016405
-0.065190703 -1.2346169 -7.7044139
-0.12183532 -1.2282339 -7.6070609
-0.1786778 -1.2222258 -7.5095506
-0.2321654 -1.2057728 -7.4128418
-0.28451988 -1.1852192 -7.3161402
-0.33707055 -1.1645449 -7.2190566
-0.38983184 -1.1437888 -7.1215844
-0.44298211 -1.1235337 -7.023694
-0.49597657 -1.1019863 -6.9254699
-0.54496801 -1.065966 -6.82728
-0.59429979 -1.0296984 -6.7284107
-0.64397275 -0.99317753 -6.6288548
-0.69435912 -0.95773137 -6.5286031
-0.74507397 -0.92200589 -6.4276762
-0.79075521 -0.86575234 -6.3257236
-0.83693391 -0.80894196 -6.2226868
-0.88405073 -0.75328094 -6.1186128
-0.93164879 -0.69699919 -6.0134521
-0.97387373 -0.61589003 -5.9058599
-1.0155076 -0.52837259 -5.7963142
-1.0580586 -0.44050688 -5.6850796
-1.0922191 -0.31092697 -5.568697
-1.1229203 -0.15885282 -5.4477634
-1.1189911 0.16334724 -5.3065214
0.15549153 -1.2438853 -7.8491554
0.096317619 -1.244421 -7.7507725
0.039610922 -1.2380255 -7.6531692
-0.017152727 -1.2315837 -7.5554495
-0.074000806 -1.2251729 -7.4576035
-0.13091919 -1.218753 -7.3596354
-0.18825346 -1.2133648 -7.2614708
-0.24089709 -1.1934206 -7.1641273
-0.29351974 -1.1727 -7.0664454
-0.34635389 -1.1518968 -6.9683714
-0.39943615 -1.1311271 -6.8698997
-0.45305306 -1.1113355 -6.7710075
-0.50497049 -1.0850781 -6.6718388
-0.55426109 -1.0488027 -6.5722342
-0.60389441 -1.0122755 -6.4719362
-0.6541118 -0.97633904 -6.3709488
-0.70480669 -0.94064391 -6.2692814
-0.75397462 -0.89776039 -6.1667042
-0.79999471 -0.84107339 -6.0627375
-0.84678674 -0.7848655 -5.957715
-0.89424282 -0.7287401 -5.8516245
-0.94100875 -0.66720641 -5.7440853
-0.98204011 -0.57892025 -5.6332436
-1.0243009 -0.4915702 -5.5208025
-1.0667164 -0.40053436 -5.4063315
-1.0964714 -0.24819517 -5.283494
-1.1217632 -0.067361891 -5.154398
0.27279615 -1.2170287 -7.8020678
0.20981133 -1.2267914 -7.7019835
0.14686128 -1.2367657 -7.6020651
0.088264078 -1.234957 -7.5034752
0.031282336 -1.2285253 -7.4052534
-0.025770336 -1.2220856 -7.3069096
-0.082894266 -1.2156379 -7.2084422
-0.14025858 -1.2096843 -7.1098232
-0.19700938 -1.2016714 -7.0111914
-0.24970424 -1.1809044 -6.9129052
-0.30261114 -1.1600543 -6.8142242
-0.35573098 -1.1391203 -6.7151451
-0.40932006 -1.1189282 -6.6156583
-0.46322483 -1.0990136 -6.5157838
-0.51405066 -1.0679449 -6.415432
-0.56364393 -1.0314109 -6.3143864
-0.61368746 -0.99498361 -6.2126431
-0.66435075 -0.95927763 -6.1102295
-0.71535748 -0.92332911 -6.0071216
-0.76299524 -0.87325776 -5.9025264
-0.80946791 -0.81654799 -5.7965345
-0.85676044 -0.76049566 -5.6895065
-0.90456069 -0.70389819 -5.581358
-0.94871962 -0.62977719 -5.4704657
-0.990587 -0.54250985 -5.3567805
-1.0332217 -0.45423669 -5.2413111
-1.0702252 -0.33677098 -5.1205449
-1.1007946 -0.18422365 -4.9928594
-1.1079102 0.084939003 -4.8456163
0.45600444 -1.1780379 -7.8554964
0.39162475 -1.1898221 -7.7543678
0.32811791 -1.1996744 -7.6536803
0.26474717 -1.2094681 -7.5531883
0.2014814 -1.2192831 -7.4528828
0.13799721 -1.2300071 -7.3526907
0.08011961 -1.2254413 -7.2538118
0.022860467 -1.2189733 -7.1549644
-0.03445667 -1.2124575 -7.0559955
-0.091859072 -1.2059723 -6.9569001
-0.1497384 -1.200685 -6.8576393
-0.20562217 -1.1891602 -6.7584281
-0.25860134 -1.1682628 -6.6591344
-0.31179494 -1.1472805 -6.5594387
-0.3653149 -1.1265689 -6.4593415
-0.41930312 -1.1066062 -6.3588572
-0.47349936 -1.0865678 -6.2579861
-0.52323091 -1.0506231 -6.1562004
-0.57313085 -1.0138266 -6.0536876
-0.62372637 -0.97798884 -5.9505181
-0.67470145 -0.9420287 -5.846652
-0.72593504 -0.90549493 -5.7420535
-0.77211612 -0.84841013 -5.6350803
-0.81922233 -0.79234946 -5.5271034
-0.86685675 -0.73582625 -5.4180026
-0.91500539 -0.67874944 -5.307754
-0.95693624 -0.59341174 -5.1930227
-0.99925703 -0.50557327 -5.0763273
-1.0422719 -0.41635972 -4.9577532
-1.0759923 -0.28146628 -4.8306737
-1.1121404 -0.15053594 -4.7016292
-1.1201494 0.11863989 -4.5468616
0.59526634 -1.1049886 -7.813457
0.52145058 -1.1385267 -7.7087851
0.4479841 -1.1721648 -7.6047506
0.38407075 -1.1820872 -7.5036454
0.32027858 -1.1919923 -7.4027333
0.25662315 -1.2018393 -7.3020172
0.19303092 -1.2118229 -7.2014813
0.12936369 -1.2223318 -7.1011086
0.07189694 -1.2158343 -7.0017529
0.014371932 -1.2092897 -6.9022741
-0.043239892 -1.2027757 -6.8026676
-0.10113658 -1.1968789 -6.7029247
-0.15930878 -1.1916012 -6.6030617
-0.21432117 -1.1765201 -6.5030937
-0.26758879 -1.1554912 -6.4027762
-0.32107207 -1.1343758 -6.3020511
-0.37510735 -1.1142476 -6.2009468
-0.42938763 -1.0941602 -6.0994568
-0.48265457 -1.0699131 -5.9973764
-0.53251261 -1.0331092 -5.8940983
-0.58293313 -0.99677706 -5.7901411
-0.63388717 -0.96084726 -5.6855154
-0.68517816 -0.92463088 -5.5801706
-0.73483455 -0.88082647 -5.4733925
-0.78160614 -0.82421821 -5.364408
-0.82909685 -0.76785481 -5.2543588
-0.87708884 -0.710895 -5.1431475
-0.92332822 -0.64419049 -5.0295177
-0.96535653 -0.55687129 -4.9116125
-1.0102375 -0.47735831 -4.7932291
-1.0562005 -0.39854637 -4.6734266
-1.0918901 -0.26988193 -4.5434327
-1.1284134 -0.13821518 -4.4104042
-1.1326182 0.15249979 -4.244102
0.83169574 -0.95190859 -7.8825817
0.73760623 -1.0303252 -7.7704887
0.66251594 -1.0644746 -7.6648035
0.58791113 -1.0984031 -7.5598021
0.51378697 -1.1321137 -7.4554772
0.44063413 -1.164344 -7.3519268
0.37644637 -1.1742816 -7.2505989
0.31236666 -1.1842394 -7.1494627
0.24840981 -1.194178 -7.0485201
0.18427208 -1.2049206 -6.9477353
0.12135771 -1.2126305 -6.847259
0.063609004 -1.2060955 -6.7472639
0.0057874322 -1.1995521 -6.6471434
-0.052134827 -1.1930792 -6.5468946
-0.1105157 -1.1877373 -6.4465265
-0.16896953 -1.18243 -6.3460574
-0.22310995 -1.1637518 -6.2451477
-0.27666825 -1.1425884 -6.1437902
-0.33064568 -1.1219749 -6.0420475
-0.38499871 -1.1018002 -5.93993
-0.43957472 -1.0815867 -5.8374176
-0.49174184 -1.0525106 -5.7338634
-0.54196966 -1.0156446 -5.6290965
-0.59289026 -0.97970301 -5.5237021
-0.64414835 -0.94347513 -5.4175816
-0.69575924 -0.90699911 -5.3107319
-0.74393415 -0.85618508 -5.2014275
-0.79126936 -0.79993975 -5.0904231
-0.83909291 -0.74305522 -4.9782395
-0.88756752 -0.68612844 -4.8649468
-0.93498623 -0.62222177 -4.7494311
-0.98068202 -0.54804534 -4.6309266
-1.0270016 -0.47285414 -4.5108032
-1.0718974 -0.38760829 -4.3873153
-1.1079553 -0.25823087 -4.2533746
-1.1448381 -0.12572467 -4.1162734
-1.1452999 0.18662095 -3.937254
1.0466447 -0.71803486 -7.8590727
0.92156106 -0.8635971 -7.7369676
0.82483953 -0.94557101 -7.6243954
0.73081881 -1.0233258 -7.5138211
0.65540844 -1.0576541 -7.4084921
0.58048898 -1.0917588 -7.3038478
0.50602311 -1.1257218 -7.1998758
0.43323106 -1.1564107 -7.0967507
0.36873627 -1.1664419 -6.9951944
0.30438083 -1.1764145 -6.893836
0.24013424 -1.1864071 -6.7926702
0.17543375 -1.1979548 -6.6916714
0.11326119 -1.2028737 -6.590951
0.055227131 -1.1963011 -6.4903088
-0.0028663427 -1.1896803 -6.3895383
-0.061320052 -1.183881 -6.2886553
-0.11998452 -1.1785088 -6.1876745
-0.1783435 -1.1720244 -6.0865431
-0.23198858 -1.1508516 -5.98455
-0.28589261 -1.1297128 -5.8821454
-0.34034276 -1.109529 -5.7793975
-0.39499205 -1.0892267 -5.6762476
-0.44986564 -1.0688851 -5.5727
-0.50091887 -1.0348741 -5.4674067
-0.55172211 -0.99863875 -5.3612103
-0.60294646 -0.96239996 -5.2543097
-0.65452379 -0.92591083 -5.1466713
-0.70627522 -0.88850188 -5.0381975
-0.75336301 -0.83203983 -4.9261875
-0.8024025 -0.78051788 -4.8138571
-0.85322547 -0.73361528 -4.7012954
-0.90450412 -0.68634653 -4.5877566
-0.95127547 -0.61837512 -4.4694424
-0.99727702 -0.54385412 -4.3485231
-1.0439101 -0.46831095 -4.225945
-1.0877483 -0.37656283 -4.0984063
-1.1241796 -0.24646473 -3.9604502
-1.1607655 -0.11003327 -3.8184764
1.0414209 -0.70854521 -7.5942144
0.91502851 -0.85678053 -7.4749393
0.81792098 -0.93917632 -7.3638773
0.72395223 -1.0163037 -7.2547979
0.6482209 -1.0508111 -7.1498375
0.57298332 -1.085094 -7.0455613
0.49788785 -1.1200345 -6.941927
0.42575866 -1.1484034 -6.8391848
0.3609696 -1.1584896 -6.7374039
0.29630613 -1.1685553 -6.6358194
0.2315017 -1.1793169 -6.5344286
0.16651389 -1.1909256 -6.4332552
0.10509947 -1.1929829 -6.3321476
0.046777129 -1.1863725 -6.2308497
-0.011688113 -1.1799511 -6.1294298
-0.070592552 -1.1745939 -6.0279346
-0.1295445 -1.1691915 -5.9263315
-0.18703255 -1.1591671 -5.8243189
-0.24095994 -1.1378187 -5.7212577
-0.29539061 -1.1172657 -5.6178484
-0.35013849 -1.0969546 -5.5140595
-0.40508652 -1.0765231 -5.4098625
-0.45976043 -1.0543871 -5.3050718
-0.51038086 -1.0176541 -5.1980357
-0.56157082 -0.98140347 -5.0903478
-0.6131146 -0.94490337 -4.9819164
-0.66502738 -0.90819216 -4.8727398
-0.71804327 -0.87395823 -4.7632513
-0.76826763 -0.82772958 -4.6510201
-0.81891781 -0.78105605 -4.5378041
-0.8700211 -0.73401785 -4.4236078
-0.9215619 -0.68652296 -4.3084006
-0.96771389 -0.61453909 -4.1870747
-1.014015 -0.53962743 -4.063694
-1.0609648 -0.46372855 -3.938623
-1.1037545 -0.36540926 -3.8066602
-1.140554 -0.2345342 -3.6646061
-1.1733429 -0.077696264 -3.5132258
1.0361466 -0.69896501 -7.326808
0.90843731 -0.84990025 -7.210516
0.81094044 -0.93272316 -7.100997
0.71703976 -1.0091752 -6.9933949
0.64098293 -1.0438654 -6.8888121
0.56542563 -1.0783272 -6.7849154
0.48967916 -1.1142969 -6.6816683
0.41821569 -1.140321 -6.5791955
0.35312945 -1.1504623 -6.4771891
0.28817004 -1.1605831 -6.3753805
0.22279 -1.1721605 -6.2738037
0.1575262 -1.1837918 -6.1724544
0.096843243 -1.1830357 -6.0708141
0.038230777 -1.1763858 -5.968853
-0.020761251 -1.1706054 -5.8668156
-0.079941869 -1.1651778 -5.7646899
-0.13919766 -1.1597846 -5.6624608
-0.19579846 -1.1461363 -5.5593743
-0.25015402 -1.1250525 -5.4552717
-0.30498713 -1.1046915 -5.3508363
-0.36002237 -1.0842106 -5.2459869
-0.41528612 -1.0636897 -5.1407309
-0.46886522 -1.0367488 -5.0341744
-0.52002019 -1.0004876 -4.925694
-0.57274878 -0.96820658 -4.8171377
-0.62707186 -0.94023025 -4.7086787
-0.68167204 -0.91206491 -4.5996366
-0.73416644 -0.87489474 -4.4883418
-0.7846548 -0.82849258 -4.3744826
-0.83557212 -0.78164136 -4.2596211
-0.88694674 -0.7344225 -4.1437621
-0.93834317 -0.68504047 -4.0264821
-0.98429263 -0.61066949 -3.9022899
-1.0309073 -0.53540909 -3.7764196
-1.0781777 -0.45915106 -3.6488173
-1.1199186 -0.35414577 -3.5120354
-1.1571029 -0.22253323 -3.3658204
-1.1861024 -0.044969082 -3.2038412
1.0308211 -0.68929231 -7.0568151
0.90178496 -0.84295768 -6.9436646
0.80386072 -0.92629534 -6.8357182
0.71006316 -1.0019813 -6.7295737
0.63367963 -1.0368538 -6.625381
0.55771726 -1.0717016 -6.5218735
0.48139679 -1.1085073 -6.4190683
0.41058582 -1.1322026 -6.3167491
0.3452158 -1.1423585 -6.2145171
0.27971601 -1.1531787 -6.1125097
0.21401131 -1.1648989 -6.0107574
0.1484409 -1.1766316 -5.9092379
0.088505715 -1.172991 -5.8069124
0.029501334 -1.1665822 -5.7043018
-0.029922858 -1.1611692 -5.6016521
-0.089395717 -1.15571 -5.4988909
-0.14894351 -1.1502845 -5.3960271
-0.2046553 -1.1329691 -5.2916694
-0.25954765 -1.112478 -5.1865706
-0.31468233 -1.0919874 -5.0810685
-0.37002152 -1.0713758 -4.9751453
-0.42560339 -1.050764 -4.8688169
-0.48086396 -1.0282608 -4.7617698
-0.53484976 -1.0004928 -4.6533546
-0.58910829 -0.97253531 -4.5443587
-0.64366758 -0.94447207 -4.4347916
-0.69850481 -0.91621691 -4.3246341
-0.75040305 -0.87579703 -4.2113047
-0.80115682 -0.82921815 -4.0957975
-0.85235596 -0.78223151 -3.9792767
-0.90399462 -0.73478782 -3.8617203
-0.95475376 -0.68148196 -3.7417409
-1.0010142 -0.6067673 -3.6150572
-1.0479357 -0.5311085 -3.4866447
-1.0955306 -0.45448834 -3.3564723
-1.1362436 -0.34277093 -3.2144866
-1.1738069 -0.21036202 -3.0640235
-1.1990771 -0.011992633 -2.8902915
1.025444 -0.67952502 -6.7841997
0.8950718 -0.83595002 -6.6743522
0.79629642 -0.92082053 -6.5680103
0.70300454 -0.99476182 -6.4633007
0.62629074 -1.0298206 -6.3595095
0.54967636 -1.0656725 -6.2564297
0.47303981 -1.1026658 -6.1540966
0.40289909 -1.1239667 -6.0518103
0.33721077 -1.1342199 -5.9493546
0.2711522 -1.1457863 -5.8471842
0.20513672 -1.157609 -5.7452617
0.1392706 -1.1694047 -5.6435695
0.080101252 -1.1628056 -5.5404019
0.020545274 -1.1570853 -5.4371934
-0.039173245 -1.1516401 -5.3339033
-0.098941222 -1.1461498 -5.2304993
-0.1587856 -1.1406938 -5.1269917
-0.21383017 -1.1203547 -5.0212593
-0.26903862 -1.0997729 -4.9150867
-0.32592076 -1.0837317 -4.8092442
-0.38406754 -1.0711668 -4.7036819
-0.44234037 -1.0585291 -4.5978599
-0.49687099 -1.0327936 -4.4892759
-0.55108935 -1.0049385 -4.3797565
-0.60558373 -0.97689486 -4.2696476
-0.66038036 -0.94874322 -4.1589603
-0.71546966 -0.92044145 -4.0476823
-0.76677579 -0.87674785 -3.9321346
-0.81779897 -0.82999277 -3.8149552
-0.86925948 -0.78278291 -3.6967344
-0.92118633 -0.73519927 -3.5774796
-0.97130626 -0.67789298 -3.4545562
-1.0178907 -0.60287601 -3.3253574
-1.0651225 -0.52681649 -3.1943636
-1.1130352 -0.44978476 -3.0615664
-1.1527209 -0.33123559 -2.9139569
-1.1906796 -0.19806913 -2.7591829
-1.2122827 0.021187544 -2.5725207
1.0191815 -0.67161494 -6.5089216
0.88829607 -0.82887876 -6.4025431
0.78864545 -0.91533971 -6.2978969
0.69589716 -0.98743355 -6.1945424
0.61885017 -1.0226798 -6.0911651
0.54156214 -1.0595886 -5.9885678
0.46460623 -1.0967715 -5.8867197
0.39513958 -1.1156515 -5.7843432
0.32896024 -1.1264503 -5.6817017
0.26249343 -1.1383644 -5.5793734
0.1961785 -1.1502512 -5.4772787
0.13102236 -1.159321 -5.3751135
0.071439803 -1.153006 -5.2713017
0.011501163 -1.1474949 -5.1674681
-0.048514903 -1.1420186 -5.0635295
-0.10858046 -1.1364958 -4.959476
-0.1681709 -1.1293404 -4.8550534
-0.22609112 -1.1167936 -4.7495823
-0.28415093 -1.1042168 -4.643857
-0.34235108 -1.09161 -4.5378766
-0.40069169 -1.0789723 -4.4316401
-0.45883816 -1.0651929 -4.3249154
-0.51299143 -1.0373583 -4.2148552
-0.56744462 -1.0094173 -4.104219
-0.62217641 -0.98128504 -3.9929826
-0.67721289 -0.95304549 -3.8811619
-0.73242831 -0.92423034 -3.7686338
-0.78326494 -0.87766373 -3.650785
-0.83455926 -0.83072996 -3.5319123
-0.8863067 -0.78338164 -3.4119892
-0.9385134 -0.73561311 -3.291002
-0.98800063 -0.67427337 -3.1648998
-1.0349027 -0.59890604 -3.0331345
-1.0824591 -0.52248627 -2.8995299
-1.1306944 -0.44504029 -2.7640641
-1.1693735 -0.31963065 -2.6104293
-1.2077231 -0.18565193 -2.4512517
1.0124621 -0.66456455 -6.2310667
0.88145775 -0.82173991 -6.1282039
0.78094429 -0.90976632 -6.0253468
0.68872321 -0.98003674 -5.9232631
0.61122251 -1.015764 -5.8203301
0.53337413 -1.0534483 -5.718256
0.45609695 -1.0908222 -5.6169052
0.38730502 -1.1072569 -5.5143104
0.3205232 -1.1188941 -5.41154
0.25375283 -1.130873 -5.3090396
0.18713617 -1.1428243 -5.2067757
0.12275153 -1.1489724 -5.1039667
0.062606484 -1.1433532 -4.999577
0.0023676306 -1.1378109 -4.8950872
-0.060070321 -1.1385036 -4.7915144
-0.1231578 -1.1411533 -4.6882968
-0.18407387 -1.1373217 -4.5839357
-0.24219993 -1.1247439 -4.477797
-0.30046672 -1.1121366 -4.3714023
-0.35887468 -1.099498 -4.2647491
-0.41742408 -1.0868299 -4.1578383
-0.4748379 -1.0698766 -4.0496712
-0.52922606 -1.0419558 -3.9384871
-0.58391625 -1.0139267 -3.82672
-0.63888741 -0.98570693 -3.7143443
-0.69416535 -0.95737785 -3.6013768
-0.74876451 -0.92528808 -3.4867768
-0.79988217 -0.87858677 -3.3672416
-0.85145104 -0.83147359 -3.2466516
-0.90348792 -0.78398585 -3.125006
-0.95596629 -0.73598737 -3.0022492
-1.0048398 -0.67062324 -2.8727384
-1.0520627 -0.59490204 -2.7383666
-1.0999484 -0.5181188 -2.6021104
-1.1483129 -0.43937123 -2.4636116
-1.135339 -0.073260605 -2.2161615
1.0056801 -0.65744895 -5.9506226
0.87455469 -0.81453627 -5.8512979
0.7731548 -0.90418518 -5.7503271
0.68148202 -0.97256947 -5.6494279
0.60328799 -1.0093721 -5.5470204
0.52512687 -1.0472107 -5.4454546
0.44750905 -1.0848192 -5.3446198
0.37923789 -1.0991938 -5.2417269
0.312006 -1.1112664 -5.1388187
0.24493039 -1.1233099 -5.036149
0.17802298 -1.1352865 -4.9337087
0.11306003 -1.1422458 -4.8307009
0.04969883 -1.1449033 -4.727097
-0.01364474 -1.1476015 -4.6235538
-0.076941788 -1.1502576 -4.5200558
-0.14020574 -1.1529115 -4.4166117
-0.20009258 -1.1453941 -4.3110752
-0.25842595 -1.1327863 -4.2042632
-0.31690085 -1.1201477 -4.0971923
-0.37551796 -1.1074786 -3.9898615
-0.43427747 -1.0947787 -3.8822696
-0.49095106 -1.0745926 -3.7724714
-0.54557598 -1.0465853 -3.6601508
-0.60050547 -1.0184698 -3.5472403
-0.65573001 -0.99020284 -3.433723
-0.71123958 -0.96174169 -3.3195829
-0.76523942 -0.92639589 -3.202733
-0.81664115 -0.87955999 -3.081491
-0.86848676 -0.8322655 -2.9591608
-0.92079401 -0.78455049 -2.835742
-0.97356904 -0.73640823 -2.7112188
-1.0218353 -0.66698468 -2.5780554
-1.0680518 -0.58518875 -2.4389157
-1.0886209 -0.38607925 -2.2534673
0.99883419 -0.65026689 -5.667552
0.86734921 -0.80783278 -5.5718389
0.76531249 -0.89851058 -5.4728017
0.67415351 -0.96507514 -5.3730021
0.59528071 -1.0029199 -5.2711787
0.51678711 -1.0409567 -5.1701374
0.43884254 -1.0787611 -5.0698299
0.37095034 -1.0914267 -4.9665804
0.30319065 -1.1041446 -4.8635926
0.23243901 -1.1253687 -4.7622828
0.16197431 -1.1465069 -4.6613841
0.096626073 -1.1540531 -4.5583639
0.033072114 -1.1567571 -4.4545403
-0.030435681 -1.1594193 -4.3507609
-0.09392377 -1.16212 -4.2470446
-0.15735216 -1.1647384 -4.143363
-0.21620245 -1.1534793 -4.0364389
-0.27474439 -1.1408402 -3.928947
-0.3334291 -1.1281703 -3.8211935
-0.39225668 -1.1154697 -3.7131774
-0.4512279 -1.1027378 -3.6048975
-0.5071795 -1.0793436 -3.4932961
-0.56204295 -1.0512481 -3.3798251
-0.61721379 -1.0230445 -3.2657566
-0.67268145 -0.99468833 -3.1510739
-0.72844869 -0.96617913 -3.0357718
-0.78185415 -0.92755544 -2.9164813
-0.83352041 -0.88049775 -2.7934809
-0.88564557 -0.83302033 -2.6693869
-0.93823707 -0.78511965 -2.5441833
-0.98600358 -0.71502054 -2.4096286
-1.0076756 -0.53140938 -2.229625
-1.0203398 -0.29929736 -2.0266318
0.99192399 -0.64301717 -5.3818192
0.85983843 -0.8016386 -5.2898364
0.75738055 -0.89282668 -5.1927409
0.66660136 -0.95789289 -5.0940018
0.5871985 -0.99640822 -4.9927683
0.50837064 -1.0346444 -4.8922672
0.42789823 -1.0783277 -4.7934275
0.35643202 -1.0997421 -4.6916027
0.28525704 -1.1210697 -4.5901933
0.21437174 -1.1423109 -4.4891973
0.14383444 -1.1633005 -4.3885775
0.080082774 -1.1659695 -4.2844629
0.01636377 -1.168637 -4.1804008
-0.047336727 -1.1713451 -4.0764027
-0.1109898 -1.1740097 -3.9724486
-0.17382073 -1.1742971 -3.8679438
-0.23243025 -1.1616578 -3.7600281
-0.29118174 -1.1489871 -3.6518507
-0.35007745 -1.1362864 -3.5434086
-0.4091171 -1.123554 -3.4347007
-0.46828875 -1.1107494 -3.3257146
-0.52352428 -1.084128 -3.2121229
-0.57862842 -1.055945 -3.0974884
-0.63404214 -1.0276518 -2.9822488
-0.6897552 -0.99920619 -2.8663864
-0.74577039 -0.97060657 -2.7498963
-0.79858845 -0.92868155 -2.6279662
-0.85053283 -0.88144249 -2.5031977
-0.89231461 -0.79190946 -2.361187
-0.92618293 -0.66606659 -2.2030222
-0.94619828 -0.47661185 -2.0165384
-0.95043665 -0.2104876 -1.794389
0.98494798 -0.63569945 -5.0933862
0.85223979 -0.79543096 -5.0052252
0.74939364 -0.88704747 -4.9101019
0.656048 -0.9578954 -4.8135157
0.57181138 -1.0080067 -4.7148395
0.48836797 -1.0576464 -4.6170926
0.41014922 -1.0953016 -4.5180721
0.33854681 -1.1167326 -4.4165654
0.26723644 -1.1380771 -4.3154736
0.1962021 -1.1593753 -4.2148032
0.12738988 -1.1752408 -4.1133118
0.063443273 -1.1779553 -4.008976
-0.00045573711 -1.1806278 -3.9046845
-0.064322084 -1.1832991 -3.8004465
-0.12814111 -1.1859274 -3.6962516
-0.18992947 -1.182518 -3.5904121
-0.24874975 -1.169848 -3.481806
-0.30771378 -1.1571465 -3.3729343
-0.3668223 -1.1444138 -3.2637954
-0.42607561 -1.1316502 -3.1543899
-0.4849239 -1.1170242 -3.0441077
-0.5399859 -1.0889469 -2.9289322
-0.59534508 -1.0607176 -2.8131344
-0.65099186 -1.0322928 -2.6966944
-0.70695257 -1.0037565 -2.5796385
-0.76321769 -0.97506523 -2.4619455
-0.79921395 -0.86836976 -2.3130617
-0.8318913 -0.74381012 -2.1548283
-0.86531705 -0.61622131 -1.9928246
-0.88361311 -0.42086366 -1.7995889
-0.87884146 -0.11952889 -1.5565252
0.96454483 -0.66003752 -4.8071628
0.8333264 -0.81625313 -4.7224641
0.72375113 -0.92420399 -4.632431
0.63511068 -0.9834584 -4.535512
0.55085278 -1.0334872 -4.4379835
0.4673717 -1.0830882 -4.341382
0.392299 -1.1123984 -4.2413874
0.32055897 -1.133847 -4.140203
0.24911347 -1.1552076 -4.0394335
0.17796037 -1.1764808 -3.9390764
0.11083496 -1.1872917 -3.8364563
0.046721756 -1.1899694 -3.7318795
-0.017358869 -1.1926472 -3.6273563
-0.081405789 -1.1953225 -3.5228877
-0.14540601 -1.1979554 -3.4184604
-0.20615771 -1.1908345 -3.3110793
-0.26518977 -1.1781328 -3.201776
-0.32435355 -1.1653587 -3.0921912
-0.38367632 -1.1525943 -2.9823499
-0.44314492 -1.1397986 -2.8722382
-0.50126159 -1.1219656 -2.7600582
-0.5565666 -1.0937998 -2.6436992
-0.61216998 -1.0654819 -2.5267124
-0.6625585 -1.0173746 -2.4014385
-0.70222718 -0.92814577 -2.2587507
-0.73817408 -0.82102644 -2.1069164
-0.77041531 -0.69483697 -1.9448962
-0.80253297 -0.56217074 -1.7775249
-0.81986541 -0.36404383 -1.5786326
0.91618913 -0.75080329 -4.5320125
0.80468434 -0.86046457 -4.4429955
0.69924355 -0.95855021 -4.3538632
0.61412156 -1.0090625 -4.2565827
0.52980757 -1.0590951 -4.1602254
0.44655216 -1.1079829 -4.0646214
0.37437743 -1.1295372 -3.9633465
0.30250001 -1.1510029 -3.8624885
0.23091787 -1.1723802 -3.7620444
0.15961421 -1.1937115 -3.6620245
0.094198525 -1.1993711 -3.5579774
0.029888555 -1.2020948 -3.4531803
-0.034359694 -1.2047358 -3.348413
-0.098589361 -1.2074161 -3.2437115
-0.1627714 -1.2100536 -3.1390514
-0.22247837 -1.1991642 -3.0299039
-0.28172436 -1.1864316 -2.9198964
-0.34111622 -1.1736671 -2.8096178
-0.40065449 -1.1608715 -2.6990676
-0.46033937 -1.1480436 -2.5882444
-0.51771754 -1.1269422 -2.473959
-0.56073749 -1.0557431 -2.3393593
-0.59954852 -0.96675801 -2.1960661
-0.6390354 -0.87629461 -2.0503411
-0.67608559 -0.7728703 -1.8972297
-0.70787144 -0.64501303 -1.7313132
-0.73861665 -0.5071826 -1.5583231
-0.75494725 -0.30621675 -1.3535969
1.0533464 -0.56039727 -4.3129735
0.8872692 -0.79542458 -4.249692
0.77604431 -0.90467227 -4.1635547
0.67820758 -0.98432171 -4.0728393
0.59304595 -1.0347939 -3.9767404
0.50870991 -1.0847449 -3.8815439
0.42868227 -1.1251886 -3.7848904
0.35636789 -1.1467605 -3.6839464
0.28435266 -1.1682425 -3.5834196
0.21261853 -1.1896778 -3.4833186
0.14197838 -1.2088317 -3.3829684
0.077450454 -1.2115626 -3.2778838
0.012971103 -1.2142506 -3.1728411
-0.051460266 -1.2168955 -3.0678391
-0.11587304 -1.2195807 -2.9629049
-0.1795916 -1.2202822 -2.8573258
-0.2389067 -1.207549 -2.7468789
-0.29836756 -1.1947844 -2.6361604
-0.35797566 -1.1819878 -2.5251677
-0.41250956 -1.1522436 -2.4072337
-0.45630574 -1.0858037 -2.2738545
-0.49679264 -1.0054462 -2.1333449
-0.53541821 -0.91527438 -1.98702
-0.57469767 -0.8235029 -1.8381517
-0.61292148 -0.72387838 -1.6839077
-0.64424264 -0.59436047 -1.5140061
-0.67351317 -0.45113477 -1.335067
-0.68726027 -0.24132392 -1.121501
0.99036843 -0.68472981 -4.0423555
0.85833269 -0.84008688 -3.9674075
0.74740702 -0.94887578 -3.8841407
0.65710235 -1.010179 -3.7908814
0.57191819 -1.0605676 -3.695961
0.48754376 -1.1104777 -3.601943
0.41072422 -1.1424791 -3.5037863
0.3382709 -1.1640673 -3.4031787
0.26610103 -1.1856079 -3.3029995
0.19422993 -1.2070595 -3.2032351
0.12531614 -1.2210898 -3.1014667
0.060618758 -1.2237836 -2.996135
-0.0040310025 -1.2264347 -2.8908429
-0.068661362 -1.2291262 -2.7856205
-0.13325804 -1.2318153 -2.6804523
-0.19592559 -1.2287955 -2.5731657
-0.25545636 -1.2160301 -2.4620032
-0.301007 -1.1590347 -2.3328199
-0.34422788 -1.0923649 -2.1984818
-0.38802022 -1.024877 -2.0624268
-0.43169802 -0.95424455 -1.9236243
-0.47011262 -0.86281294 -1.7741632
-0.50918233 -0.76974487 -1.6220803
-0.54866558 -0.67407721 -1.4668796
-0.57947546 -0.54276592 -1.292835
-0.60721368 -0.39409614 -1.1076925
-0.61143351 -0.14943624 -0.87206984
0.94231874 -0.77416873 -3.7672148
0.82939929 -0.88474452 -3.6851516
0.72199374 -0.98524177 -3.602603
0.63594466 -1.0360777 -3.5079725
0.55071956 -1.0864273 -3.414248
0.46630645 -1.1362975 -3.3214176
0.39267874 -1.1598539 -3.2213001
0.32006848 -1.1815009 -3.1210456
0.24776003 -1.2030582 -3.021208
0.17576694 -1.2244844 -2.9217699
0.10857129 -1.2333785 -2.8182969
0.043688148 -1.2360773 -2.7127297
-0.021146953 -1.2387328 -2.6072011
-0.085963458 -1.2414286 -2.5017428
-0.14164804 -1.217116 -2.3855741
-0.18871564 -1.1658318 -2.2578726
-0.23137906 -1.0990143 -2.1225991
-0.27459496 -1.0313318 -1.9855735
-0.31837398 -0.96276784 -1.8467631
-0.36271328 -0.89325899 -1.7061114
-0.40361112 -0.80939102 -1.5574098
-0.44245714 -0.71499437 -1.402019
-0.4820326 -0.61906493 -1.2439406
-0.51355243 -0.49025097 -1.0677161
-0.5396592 -0.33594033 -0.8760345
-0.53390199 -0.055935383 -0.6167829
1.0805533 -0.58445734 -3.5296297
0.9130829 -0.81929016 -3.4820585
0.80046839 -0.929398 -3.4029233
0.70080656 -1.011268 -3.3175323
0.61471593 -1.0620641 -3.2241173
0.52945 -1.1123731 -3.1315975
0.44756639 -1.1556449 -3.0377753
0.37452775 -1.1773566 -2.9374347
0.30177683 -1.199021 -2.8375268
0.22934532 -1.220552 -2.7380199
0.15719855 -1.2420361 -2.6389415
0.091727585 -1.2457393 -2.5334558
0.029649496 -1.2399957 -2.4243088
-0.017170489 -1.1901978 -2.2971499
-0.064459071 -1.1399596 -2.1687751
-0.11219417 -1.0891877 -2.03913
-0.16036801 -1.0378324 -1.9081783
-0.20354165 -0.96902251 -1.7683475
-0.2472977 -0.89935064 -1.6266961
-0.29163411 -0.82875592 -1.4831667
-0.33588052 -0.75498247 -1.3366525
-0.37450224 -0.65926969 -1.1778777
-0.41382918 -0.56189305 -1.0162866
-0.44644246 -0.43678969 -0.83854175
-0.47084114 -0.27673292 -0.64001942
1.0166183 -0.71015507 -3.2620711
0.88384956 -0.86440718 -3.1969297
0.77154124 -0.97404635 -3.1207244
0.67952967 -1.0374272 -3.0315166
0.5934152 -1.0881382 -2.939311
0.50811023 -1.1384058 -2.8480058
0.42948449 -1.1731751 -2.7521427
0.35628682 -1.1949463 -2.652168
0.28341091 -1.216584 -2.5525944
0.21082363 -1.2381749 -2.453454
0.15898991 -1.2037131 -2.3321567
0.10898834 -1.1629549 -2.2075379
0.062006593 -1.1121961 -2.0778279
0.014548942 -1.0609829 -1.9468641
-0.033361644 -1.0092207 -1.8145895
-0.081746787 -0.95694548 -1.6810043
-0.13062927 -0.90419412 -1.5461082
-0.17476211 -0.83463192 -1.4021089
-0.21907151 -0.76287347 -1.2555919
-0.26396292 -0.69010204 -1.1070778
-0.30525547 -0.60245037 -0.94949746
-0.34431592 -0.50358874 -0.78428769
-0.37812662 -0.38240558 -0.60522866
-0.40070906 -0.21639603 -0.39950085
0.96896797 -0.79806304 -2.9866428
0.85461909 -0.90951979 -2.9118297
0.74521446 -1.0124214 -2.83637
0.65819985 -1.0636292 -2.7445238
0.5720439 -1.1142993 -2.6535501
0.48669958 -1.1645247 -2.5634675
0.41129637 -1.190835 -2.4651091
0.35543448 -1.1669953 -2.3472199
0.30380201 -1.1311378 -2.2238946
0.25181207 -1.095032 -2.0997148
0.19944465 -1.0587187 -1.9746902
0.14672777 -1.0221076 -1.8487749
0.095457554 -0.98007959 -1.7196417
0.047360897 -0.92733705 -1.584667
-0.0012024045 -0.87402111 -1.4483187
-0.050255537 -0.82016736 -1.3105946
-0.09982118 -0.76581371 -1.1714971
-0.14500707 -0.69566149 -1.0232861
-0.18986633 -0.62166613 -0.87162638
-0.23469327 -0.54455161 -0.71677947
-0.27348503 -0.44421446 -0.54786515
-0.30854446 -0.32697457 -0.36761045
-0.32924089 -0.1549477 -0.15437555
-0.30219188 0.19358659 0.16266012
-0.43392843 -0.016427875 0.16405725
1.108283 -0.60911036 -2.7301068
0.93942899 -0.84364909 -2.6985836
0.82539159 -0.95462811 -2.6267591
0.72385508 -1.0387537 -2.5471549
0.6367979 -1.08992 -2.4565618
0.57615596 -1.0767949 -2.3414857
0.51782459 -1.0573943 -2.2235737
0.45929378 -1.0378779 -2.1052058
0.4005453 -1.018288 -1.9863968
0.34739286 -0.98314381 -1.8603396
0.29459327 -0.9458468 -1.7325764
0.24140343 -0.90833044 -1.6039283
0.18785214 -0.87050211 -1.4743457
0.13390279 -0.83245021 -1.3438613
0.081306338 -0.78907406 -1.2099586
0.032073259 -0.73412716 -1.0693302
-0.017680854 -0.6786629 -0.92728281
-0.067931995 -0.62257987 -0.78374696
-0.11419514 -0.55177724 -0.63117194
-0.15961611 -0.47543073 -0.47409344
-0.20128244 -0.38369107 -0.30686808
-0.23765871 -0.27046824 -0.12556648
-0.28193665 -0.17928946 0.045413971
-0.35359013 -0.17934078 0.16480303
1.0434258 -0.7360549 -2.46578
0.93198079 -0.83726943 -2.3905978
0.85951537 -0.8484593 -2.2820268
0.78720087 -0.85962605 -2.1736825
0.71503794 -0.87076914 -2.0655646
0.64306051 -0.88179904 -1.9576323
0.58339125 -0.861902 -1.8364246
0.52362323 -0.84161103 -1.714622
0.46364552 -0.82119673 -1.5923352
0.40342134 -0.80075049 -1.4696028
0.3429842 -0.78018057 -1.346379
0.28495264 -0.75224334 -1.2191169
0.23054045 -0.71313089 -1.0856769
0.17571652 -0.67378151 -0.95129132
0.12049311 -0.63414419 -0.81592584
0.066508055 -0.5893386 -0.67697644
0.016066462 -0.53208572 -0.53033352
-0.034920692 -0.47428107 -0.38217926
-0.082268417 -0.40271431 -0.22505331
-0.12877932 -0.32554948 -0.063206673
-0.1880936 -0.28717351 0.077600956
-0.27483815 -0.33903575 0.16553307
-0.27084905 -0.082697511 0.43897486
0.73817039 -0.43771392 -1.3288646
0.62304395 -0.55304587 -1.2661057
0.54867643 -0.56488723 -1.1553969
0.47450465 -0.57660693 -1.0448785
0.40646249 -0.57202834 -0.92632723
0.34446317 -0.5505302 -0.79890203
0.28225562 -0.52885038 -0.67092609
0.21983594 -0.50698662 -0.54239082
0.16303369 -0.46786654 -0.4038949
0.10645768 -0.42658651 -0.26335812
0.051034093 -0.38020891 -0.11903238
-0.013097227 -0.3590045 0.011618137
-0.079157382 -0.34304887 0.139606
-0.17713317 -0.42945725 0.20616531
-0.18585342 -0.22535026 0.44926786
0.29396099 -0.25204682 -0.070723534
0.1983715 -0.32111293 0.0093855858
0.11670238 -0.3511253 0.111094
0.01015383 -0.45827621 0.16577911
-0.01366207 -0.31203723 0.37325096
-0.079481959 -0.29333359 0.50442886
0.50931102 -0.014005363 0.1623559
0.36271447 -0.2206223 0.16397715
0.22098213 -0.42081922 0.16503191
0.20242697 -0.26514202 0.37886524
0.11790171 -0.30186474 0.47662115
1.282939 0.015207171 -7.5497856
1.2705142 -0.23065561 -7.6312351
1.2343013 -0.35233271 -7.7216592
1.2687733 -0.1327244 -7.3762188
1.241452 -0.3009598 -7.4667659
1.2056336 -0.421534 -7.5587282
1.1701519 -0.53765678 -7.6489382
1.1262631 -0.61132783 -7.741807
1.2652965 -0.024065375 -7.1152568
1.2487226 -0.24872792 -7.2076144
1.2125287 -0.37086236 -7.3031368
1.1771189 -0.49042839 -7.3966141
1.1361455 -0.57961279 -7.4906106
1.0924885 -0.65299332 -7.5845284
1.0494119 -0.72539902 -7.677197
1.0068946 -0.79680973 -7.7686472
1.2617254 0.087511122 -6.8472905
1.2518694 -0.17524946 -6.9448838
1.2195489 -0.31939107 -7.0432849
1.1837616 -0.44045389 -7.140336
1.1461582 -0.54747522 -7.2360764
1.1021469 -0.62155795 -7.3323259
1.058723 -0.69464797 -7.427289
1.0158765 -0.7667684 -7.5209904
0.97112191 -0.82793611 -7.6144886
0.92358178 -0.87540138 -7.7083979
1.2475131 -0.06365025 -6.6772671
1.2266772 -0.26701114 -6.7790709
1.190515 -0.38964838 -6.8797989
1.155695 -0.51217306 -6.9782534
1.1119335 -0.58970368 -7.0767727
1.0681565 -0.66349053 -7.1740828
1.0249658 -0.73629147 -7.2700911
0.98187143 -0.80618244 -7.3649793
0.93401045 -0.85401553 -7.4605374
0.88656455 -0.9013862 -7.5552521
0.83954734 -0.94837838 -7.649127
0.79294235 -0.99495757 -7.742178
1.2436883 0.047842085 -6.402318
1.2339258 -0.21374315 -6.5103798
1.1973815 -0.3379916 -6.6148958
1.162024 -0.4613241 -6.7171121
1.12185 -0.55742294 -6.817801
1.0777164 -0.63191998 -6.917511
1.0341756 -0.70541382 -7.0158796
0.99150753 -0.77911085 -7.1128664
0.9445501 -0.832344 -7.2098217
0.89679426 -0.88012207 -7.3061943
0.84946287 -0.92747718 -7.4017105
0.80253953 -0.97437477 -7.4963865
0.75610214 -1.0211329 -7.5902033
0.70602429 -1.0529048 -7.6848302
0.65568948 -1.0825162 -7.7791271
1.2303915 -0.1073966 -6.2358665
1.2043738 -0.28550768 -6.3455172
1.1684693 -0.40966171 -6.4515705
1.131901 -0.52470851 -6.5553408
1.0874031 -0.59992623 -6.6575079
1.0435083 -0.67412537 -6.7582912
1.0004747 -0.7484405 -6.8576813
0.95522147 -0.81046045 -6.9561963
0.90714234 -0.85861301 -7.0542617
0.85948282 -0.90629619 -7.151453
0.81225663 -0.95359546 -7.2477789
0.7655434 -1.0008305 -7.3432264
0.71647108 -1.0376128 -7.4387159
0.6658349 -1.0673835 -7.5342035
0.61549544 -1.0970249 -7.629148
0.56542802 -1.12646 -7.7235622
1.2255056 0.0078519583 -5.9537401
1.2114753 -0.23208323 -6.0715485
1.175024 -0.35712093 -6.1815171
1.1402372 -0.48329738 -6.2891593
1.0972207 -0.56750202 -6.3940029
1.0529654 -0.64241892 -6.4972572
1.0095706 -0.7174027 -6.599103
0.9660176 -0.78832269 -6.6996131
0.91761142 -0.83685517 -6.7994041
0.86962867 -0.88491064 -6.8983002
0.82208484 -0.93257743 -6.9963121
0.77510363 -0.98033613 -7.0934229
0.72701746 -1.0221221 -7.1900249
0.67609769 -1.0521322 -7.2867165
0.62545514 -1.0819315 -7.382863
0.57511121 -1.1116017 -7.4784613
0.52504021 -1.1410657 -7.5735226
0.47526225 -1.1704013 -7.668045
0.42276683 -1.1898673 -7.7632136
1.2137017 -0.15410101 -5.7913876
1.1817987 -0.30417603 -5.9068627
1.146524 -0.4314889 -6.0185108
1.1071719 -0.53463888 -6.1269255
1.0625496 -0.61028457 -6.2327085
1.0187786 -0.68590885 -6.3370643
0.97581166 -0.76132429 -6.4399924
0.92819118 -0.81480074 -6.5415711
0.87989241 -0.8632763 -6.6422052
0.83202779 -0.91131616 -6.7419348
0.78476256 -0.9595657 -6.8407516
0.73767519 -1.0064685 -6.938714
0.6864568 -1.0366803 -7.0366344
0.63553107 -1.0667195 -7.1339941
0.58488387 -1.0965486 -7.2308035
0.534536 -1.1262479 -7.3270593
0.48450756 -1.1558932 -7.42276
0.43270224 -1.1786692 -7.5185728
0.37875423 -1.193784 -7.6147757
0.32497647 -1.208894 -7.7106934
1.208149 -0.037110209 -5.5019174
1.1887493 -0.25059512 -5.6275077
1.1529282 -0.37883961 -5.743238
1.1172581 -0.50132632 -5.8562021
1.0722642 -0.57771492 -5.9645724
1.0281205 -0.65403223 -6.0714951
0.98479015 -0.7301327 -6.1769667
0.93890619 -0.79252923 -6.2807093
0.89027631 -0.84138936 -6.3831158
0.84207523 -0.88976669 -6.4845967
0.79453325 -0.9385547 -6.5851588
0.74750084 -0.98717904 -6.6848001
0.69692504 -1.0210656 -6.7839103
0.64570141 -1.0513084 -6.8825088
0.59477091 -1.0813774 -6.9805427
0.54411948 -1.111236 -7.0780196
0.49387217 -1.1413114 -7.1749172
0.44272217 -1.1673224 -7.2715445
0.38850859 -1.1825665 -7.3685756
0.33445406 -1.1977665 -7.4653225
0.28055844 -1.2129219 -7.5617847
0.22681993 -1.2280331 -7.6579666
0.17323798 -1.2430999 -7.7538662
1.2027097 0.081913769 -5.204319
1.1958293 -0.19613376 -5.343327
1.159433 -0.32523727 -5.4632177
1.1243325 -0.45356137 -5.5805902
1.0821111 -0.5447011 -5.6927776
1.0375888 -0.62172329 -5.8023243
0.9939009 -0.69856358 -5.9103975
0.94974715 -0.76999378 -6.0167646
0.90077144 -0.8192029 -6.1209779
0.85225147 -0.86800587 -6.2242451
0.80441844 -0.917301 -6.3265924
0.75706726 -0.96630383 -6.4280024
0.70751607 -1.0053257 -6.5285025
0.65597939 -1.0357335 -6.6283607
0.60474974 -1.0660057 -6.727644
0.55381525 -1.0961046 -6.8263564
0.50333524 -1.1265774 -6.9244828
0.45285287 -1.1559036 -7.0220871
0.39835903 -1.1712399 -7.1199617
0.344026 -1.1865305 -7.2175469
0.28985205 -1.2017761 -7.3148465
0.23583707 -1.2169769 -7.4118595
0.18196917 -1.232096 -7.5085917
0.12722337 -1.2441202 -7.6053667
0.068691552 -1.2447684 -7.7032342
1.1910865 -0.084393561 -5.0470257
1.1660609 -0.2707496 -5.1783338
1.1305826 -0.4008038 -5.2999983
1.0920935 -0.51123297 -5.4172473
1.0471771 -0.58893061 -5.5294747
1.0031247 -0.66652381 -5.6402111
0.9597016 -0.74306834 -5.7493949
0.91140157 -0.79679596 -5.8557391
0.86254746 -0.84598899 -5.9608274
0.8144179 -0.89579737 -6.0650029
0.76674551 -0.94518495 -6.1682148
0.71820921 -0.98937714 -6.2703686
0.66637796 -1.0200329 -6.3715076
0.6148358 -1.0504718 -6.4720597
0.56360221 -1.0807743 -6.5720329
0.51289737 -1.1116886 -6.6714182
0.46249083 -1.1424202 -6.7702188
0.40830553 -1.1598003 -6.8688993
0.35369036 -1.1751831 -6.9673367
0.29922435 -1.1904824 -7.065485
0.24493104 -1.2057747 -7.163342
0.1908105 -1.2210605 -7.2609081
0.13660324 -1.2355725 -7.3582463
0.077798635 -1.2362243 -7.4565849
0.019001871 -1.2368758 -7.5549107
-0.039787799 -1.2375275 -7.6532245
-0.098569632 -1.2381788 -7.7515249
1.1856103 0.033312798 -4.7420592
1.1727948 -0.21525958 -4.8884473
1.1369305 -0.34708646 -5.0145378
1.1018908 -0.4758828 -5.1377292
1.0569072 -0.55573034 -5.2528768
1.0124844 -0.63408905 -5.3663402
0.96869069 -0.71133995 -5.4781981
0.9221583 -0.77412242 -5.5873442
0.87297606 -0.82375258 -5.6942921
0.82453573 -0.87404072 -5.800334
0.77654761 -0.92385995 -5.9053869
0.72899419 -0.97317636 -6.0094619
0.67687702 -1.0041248 -6.1119061
0.62504053 -1.0348117 -6.2137499
0.5735513 -1.0654801 -6.3150067
0.52256078 -1.0966424 -6.4156799
0.47186029 -1.1275808 -6.5157576
0.41833925 -1.148209 -6.6153507
0.3634387 -1.163685 -6.7146525
0.3087016 -1.1791158 -6.8136587
0.25412634 -1.1945 -6.9123716
0.19982877 -1.2101876 -7.0107746
0.14583704 -1.2262509 -7.1088567
0.086990803 -1.2275999 -7.2076302
0.027919084 -1.2282557 -7.3064308
-0.03114599 -1.2289104 -7.40522
-0.090202719 -1.229566 -7.5039954
-0.14925295 -1.2302208 -7.6027598
-0.21075594 -1.224246 -7.7022781
1.2000951 0.057996988 -4.4454546
1.1845491 -0.18164009 -4.5972672
1.1443014 -0.29656938 -4.7247391
1.1079824 -0.42301765 -4.8517137
1.066761 -0.52202594 -4.9724441
1.0219731 -0.60120952 -5.0887051
0.97781307 -0.67922139 -5.2033033
0.93303341 -0.75113511 -5.315731
0.88355005 -0.80133569 -5.424592
0.83477348 -0.85202706 -5.5325327
0.78645462 -0.90224284 -5.6394606
0.73857599 -0.95194906 -5.7453871
0.68749958 -0.98808461 -5.849514
0.63534331 -1.0189434 -5.9526691
0.58361769 -1.0500627 -6.0552435
0.5323261 -1.0814358 -6.1572275
0.48132822 -1.1125833 -6.2586031
0.42848486 -1.1365415 -6.3592787
0.37329656 -1.152112 -6.459456
0.31827292 -1.1676362 -6.5593343
0.26341343 -1.1831139 -6.658915
0.20892239 -1.1991684 -6.7581844
0.15465182 -1.2153282 -6.857142
0.096283019 -1.2189342 -6.9563355
0.036919415 -1.2195539 -7.0556183
-0.022423178 -1.2202128 -7.1548862
-0.081758291 -1.220871 -7.2541423
-0.14107138 -1.2215689 -7.3533821
-0.20216984 -1.217422 -7.4530525
-0.26834065 -1.1999073 -7.5541558
-0.33472145 -1.1823723 -7.6555977
-0.40132707 -1.1647774 -7.7573838
1.2147546 0.082978129 -4.1452765
1.1988126 -0.15859234 -4.3042164
1.1609576 -0.28710988 -4.4377394
1.1207674 -0.39859092 -4.5658197
1.0783433 -0.49476132 -4.6892347
1.0315828 -0.56783068 -4.8072205
0.98704988 -0.64661789 -4.9246259
0.9431622 -0.72432601 -5.0403643
0.89425081 -0.77864975 -5.1516643
