# .PCD v0.7 - Point Cloud Data file format
VERSION 0.7
FIELDS x y z
SIZE 4 4 4
TYPE F F F
COUNT 1 1 1
WIDTH 1520
HEIGHT 1
VIEWPOINT 0 0 0 1 0 0 0
POINTS 1520
DATA ascii
-3.3249333 2.3898795 28.125549
-4.9448991 1.6213043 30.358171
7.3357315 0.59743786 32.460442
6.5950532 1.2933297 30.109268
5.7997961 1.7531346 28.498207
4.9564934 2.0431659 27.417715
4.0675335 2.2032292 26.741722
3.0733621 2.1487246 26.727917
1.7998091 1.6170715 28.17812
0.41069093 0.95751023 30.013123
-0.21815768 1.5433437 28.032801
-0.96852958 1.8910521 26.786472
-1.8572313 2.0120537 26.23468
-2.9238441 1.885377 26.43664
-4.310204 1.3639517 27.833111
7.425343 -0.30173197 31.879677
6.7151933 0.49196252 29.314617
5.9365392 0.99548054 27.625614
5.1220732 1.3454273 26.400333
4.2824397 1.5954559 25.47641
3.4714994 1.8679925 24.488935
2.3522916 1.5535867 25.241543
0.53911591 0.10000607 29.353405
-0.0012092888 0.84272289 26.976463
-0.63675177 1.3643879 25.258793
-1.3784633 1.6816099 24.147449
-2.3613596 1.6369869 24.099232
-3.9797223 0.75990713 26.481659
7.3104606 -1.7943133 33.034595
6.7674041 -0.47868147 29.04361
6.0154266 0.11002216 27.16201
5.252501 0.58586299 25.611958
4.5219083 1.0641164 24.060858
3.710546 1.3200873 23.151596
2.7198703 1.2109619 23.287773
0.48739472 -1.064719 29.594343
0.10541949 -0.022244841 26.441074
-0.42688087 0.67613328 24.276627
-1.1519743 1.0174762 23.131248
-1.9998881 1.1516727 22.575056
-3.6473341 0.1841751 25.124893
6.5950294 -2.0737669 30.511604
6.0018816 -1.0069085 27.354244
5.3057294 -0.34329978 25.328739
4.6671233 0.35413465 23.217495
3.9854443 0.87216866 21.610313
3.0262814 0.79186261 21.659122
0.051842421 -1.1562587 26.661196
-0.37102965 -0.2457954 23.982363
-1.0844392 0.12523708 22.788883
-1.6528667 0.67546523 21.111099
-2.4813204 0.80981743 20.571676
5.163362 -1.7505389 26.328312
5.2892928 0.74265683 19.47084
4.5726705 1.1195241 18.295872
3.6472683 1.0337783 18.358423
-0.52496159 -1.5205988 24.623493
-1.1503571 -0.97901952 23.011086
-1.1434335 0.47624406 18.995893
-1.7575501 0.89600766 17.721815
-2.5150912 1.0797158 17.072264
-3.3779783 1.1074506 16.833374
6.2675176 -0.039026171 19.148138
5.7210889 0.77180541 16.879942
4.9748673 1.0373508 16.030386
4.1078825 1.0212985 15.910143
3.0880139 0.71034729 16.548689
-0.47284284 -0.86665094 20.090265
-0.80949223 0.046210378 17.589052
-1.4001971 0.49472532 16.280123
-2.0983677 0.74989903 15.467306
-2.8677473 0.88573658 14.959791
-3.7872617 0.81179392 14.984266
-4.3886251 6.4770184 -0.25833511
-5.0952182 6.4668612 -0.36414719
-5.958847 6.3038812 -0.091377258
6.617415 -0.12068787 16.911587
5.9920058 0.46977338 15.266846
5.2398815 0.69498312 14.542896
4.420073 0.74829066 14.250792
6.4889579 6.5843472 -0.45343781
5.7409353 6.4435935 -0.23014832
-0.40667358 -1.7312354 19.755356
-0.61568034 -0.58315122 16.746811
-1.1709732 -0.076076418 15.330917
-1.8230602 0.24348697 14.381767
-2.4612551 0.5563761 13.452492
-3.2050772 0.7000066 12.941084
-4.1744866 0.53606808 13.182688
-3.6872551 5.7625151 -0.24251556
-4.313396 5.8389187 -0.55791092
-5.0459471 5.8003421 -0.59596634
-5.8106527 5.7316437 -0.56216812
6.8101897 -0.57505405 15.704828
6.2126923 0.076807588 13.958498
5.5576186 0.50762808 12.755386
7.2094502 5.9500346 -0.57545471
6.5254154 5.9274397 -0.64751434
5.7805314 5.7884893 -0.43936539
5.0855055 5.7563748 -0.48963165
-0.56601822 -1.4394978 16.483847
-1.0389305 -0.78505552 14.754486
-1.5728778 -0.28065386 13.389729
-2.0871825 0.21072921 12.061296
-2.7334149 0.47711715 11.272003
-3.4602444 0.61391747 10.792364
-4.6500158 0.13655576 11.765051
-3.6686003 5.0614395 -0.39472961
-4.4094949 5.0144324 -0.4162941
-5.078589 5.046968 -0.62372589
-5.8851275 4.9350576 -0.49496078
-6.6248665 4.8968282 -0.538311
6.8821216 -1.3409728 15.291628
6.4365501 -0.28054085 12.629782
7.8746552 5.1863852 -0.39030075
7.2086678 5.2092977 -0.57130051
6.512074 5.1642981 -0.59296036
5.7795944 5.0520482 -0.4578743
5.0785565 5.0115409 -0.49129105
-1.0198315 -1.6720785 14.609922
-1.3871685 -0.88785493 12.634289
-1.815724 -0.26132479 11.030499
-2.3201473 0.20513782 9.8015823
-2.9000871 0.53045142 8.9016018
-3.6270392 0.63421357 8.5125771
-3.238662 4.0112376 0.37576294
-3.764323 4.2251606 -0.24319839
-4.4079213 4.2920055 -0.52679443
-5.1597433 4.2358108 -0.53162766
-5.9785414 4.1114206 -0.38326645
-6.7715206 4.0208979 -0.31238556
6.5838032 -0.81380785 11.767344
7.8882642 4.4695835 -0.45388794
7.1723046 4.3803434 -0.37801743
6.507308 4.4134765 -0.58130646
5.7876544 4.3296094 -0.51881027
5.0410905 4.201715 -0.35749054
-1.388661 -1.7860283 12.561462
-1.6289183 -0.84519756 10.296284
-2.0363605 -0.22919217 8.7661057
-2.4485929 0.33255777 7.3630486
-3.0212824 0.63090909 6.5513153
-3.9557498 0.42574844 6.8596039
-2.8744419 2.8288565 1.3926888
-3.2094996 3.3097954 0.19483185
-3.7514598 3.510622 -0.38100433
-4.5245609 3.4293175 -0.33460617
-5.2552724 3.4008827 -0.40498734
-6.010025 3.3477321 -0.42157364
-6.7378454 3.3263354 -0.50801468
6.5952239 -1.703751 11.733454
7.8924642 3.7251325 -0.46393585
7.178854 3.6442566 -0.41284561
6.4772992 3.6001544 -0.44376373
5.7469382 3.4995098 -0.35052872
5.0385537 3.4539003 -0.37927628
4.1463909 3.0600343 0.35550308
-1.6084501 -1.6826023 10.141563
-1.8362404 -0.77176559 8.0113316
-2.0231192 0.12925348 5.9112949
-2.4588096 0.60979569 4.7280617
-2.7835715 1.2079507 3.2961617
-2.8117983 2.1570868 1.1156998
-3.1859863 2.6004229 0.02930069
-3.8475411 2.6595068 -0.23056412
-4.6129036 2.5904469 -0.21629333
-5.353651 2.554194 -0.27257538
-6.0962415 2.5180006 -0.32933807
7.8853097 2.9457393 -0.40931702
7.1730237 2.8732357 -0.38184738
6.4468389 2.7769938 -0.30411911
5.7142806 2.6775141 -0.22038269
4.9960275 2.6183157 -0.22366714
4.1657186 2.343854 0.23139954
-1.7508708 -1.4821423 7.6395206
-1.722942 -0.23299876 4.8626823
-2.087827 0.34964094 3.4963799
-2.4463699 0.89943993 2.2044106
-2.8127706 1.4004871 1.0195465
-3.2223752 1.8112632 0.027606964
-3.9631312 1.7744905 -0.029857635
-4.7079906 1.7349759 -0.081989288
-5.4558315 1.6943008 -0.13209534
-6.1996508 1.6606923 -0.1971817
7.7257881 1.7463313 0.51177979
7.1463804 2.0432177 -0.24023056
6.4160185 1.9440328 -0.16282272
5.6805091 1.8443662 -0.085342407
4.9493814 1.7646333 -0.050209045
4.1825657 1.6205446 0.11758804
-1.5646769 -0.7952317 4.2684059
-1.8744804 -0.121066 2.7500114
-2.2251856 0.44553289 1.4568901
-2.6787698 0.82927048 0.54045105
-3.2897303 0.9750253 0.10983276
-4.0545163 0.91059315 0.10549545
-4.804143 0.86936486 0.053752899
-5.5559902 0.82793438 0.0020332336
7.1196585 1.2038909 -0.098209381
6.3827715 1.0960466 -0.0095863342
5.6444058 0.99689782 0.060436249
4.900907 0.89705861 0.13094711
4.176302 0.84667695 0.10079193
-1.5491163 -1.5760745 4.1290855
-1.6506025 -0.56202304 1.9730797
-2.089947 -0.12219229 0.96356583
-2.6153109 0.16389665 0.26185608
-3.3885195 0.087788671 0.27676392
-4.1490531 0.033592314 0.24789047
-4.9061818 -0.012775332 0.2031517
-5.6684279 -0.062747866 0.16505051
7.0888176 0.34427747 0.065738678
6.3511877 0.24276266 0.13521957
5.6078877 0.13920888 0.20781708
4.8586164 0.033244222 0.28423691
4.1223397 -0.034161478 0.2840004
3.2738078 -0.32355872 0.71805191
-1.5213982 -1.1379603 1.4866371
-1.9769641 -0.71657264 0.53645325
-2.6600397 -0.6586293 0.28906631
-3.3975785 -0.68188751 0.19802094
-4.2501407 -0.8615483 0.40619278
-5.0166297 -0.91543281 0.37253952
6.8236923 -1.1704911 1.4749451
6.3144431 -0.63323772 0.3055954
5.5674644 -0.73744476 0.3732872
4.866528 -0.72404468 0.21463776
4.1324029 -0.78482425 0.19797134
3.3146429 -1.0143584 0.5027771
-1.5025331 -1.8854235 1.3370514
-1.9979674 -1.514367 0.50239182
-2.6431329 -1.3945922 0.14167786
-3.3813002 -1.418167 0.049907684
-4.2457042 -1.6178454 0.28628159
6.2729659 -1.5319594 0.49940109
5.5671043 -1.5236806 0.35047913
4.8926148 -1.4419278 0.064388275
4.1526761 -1.5157622 0.068954468
3.3211501 -1.7784928 0.42412186
-1.6959163 -2.986557 1.8326416
-2.0556996 -2.3755407 0.57513809
-2.6903832 -2.2311974 0.17465973
-3.4449069 -2.2751846 0.11835861
-4.4179006 -2.6312103 0.62857819
6.0186868 -3.0211678 1.7533798
5.5412478 -2.3804169 0.44707489
4.870379 -2.2788076 0.12794876
4.1213794 -2.3677387 0.15587234
3.2171416 -2.7885771 0.78472137
-2.8881047 -3.3119049 0.62964249
-3.7161229 -3.4563704 0.74813461
4.7443185 -3.3815527 0.65037918
7.2286644 5.6469102 -0.6775856
6.4889398 5.7428565 -0.65525055
5.7198048 5.9127097 -0.5140419
7.9293494 4.8504024 -0.51507568
7.190733 4.9537587 -0.47596741
6.4923201 4.9238973 -0.65881348
5.7045164 5.1500611 -0.41737747
4.977674 5.1887097 -0.48753357
-4.2086782 6.203402 -0.46762466
-5.0151048 6.3168235 -0.42393112
7.8911958 4.1603608 -0.31263733
7.1778216 4.1827626 -0.40732574
6.4750657 4.1713166 -0.55973816
5.7348013 4.2647395 -0.53419495
4.9333487 4.5077691 -0.25624084
-3.5229626 5.5020232 -0.093200684
-4.1218758 5.2883821 -0.5827713
-4.9377913 5.4202828 -0.50358582
-5.699264 5.4633346 -0.57089615
7.9262214 3.232168 -0.52706528
7.1883292 3.344342 -0.46318436
6.4528866 3.4358537 -0.43618011
5.7077961 3.5428951 -0.38292694
4.979188 3.5962961 -0.42350769
-3.4871168 4.6658893 -0.083496094
-4.1221218 4.5167317 -0.47250748
-4.8675003 4.5421863 -0.56674576
-5.6524291 4.6234145 -0.56763458
-6.4204402 4.6759925 -0.61710739
7.865418 2.620198 -0.1955452
7.1686139 2.6030548 -0.35838699
6.4308057 2.7024419 -0.3131485
5.686564 2.8074253 -0.25875854
4.9567122 2.8652217 -0.28903961
4.0082393 3.4335544 0.5849762
-3.4098406 3.7705534 -0.18658066
-4.0882583 3.6963527 -0.45162201
-4.8682752 3.7754486 -0.4519043
-5.6205297 3.8103302 -0.5288353
-6.4609241 3.9643362 -0.40175247
7.7530088 2.1646249 0.42969894
7.1455607 1.874251 -0.23586273
6.4087944 1.9711691 -0.19048309
5.6676717 2.0682342 -0.1456337
4.9341455 2.136378 -0.15425873
4.0785112 2.4791276 0.33547974
-2.8332872 3.2378662 0.47558594
-3.3572149 2.9212701 -0.22404861
-4.107379 2.9592988 -0.29298401
-4.8703094 3.0131643 -0.33425522
-5.6243544 3.0514066 -0.40351105
-6.4020233 3.1191242 -0.42126083
7.7350426 1.4123827 0.51721191
7.1225767 1.1475598 -0.11369705
6.3856273 1.2452599 -0.062099457
5.6462741 1.3378645 -0.020874023
4.9083905 1.4170634 -0.0054740906
-2.8045821 2.4198549 0.49612427
-3.3519974 2.1492727 -0.13376236
-4.1258807 2.2228096 -0.13616562
-4.8754787 2.2577951 -0.20906448
-5.6281705 2.2948196 -0.2785759
-6.5015779 2.4881256 -0.066478729
7.637795 0.89667571 1.055912
7.0971022 0.43000284 0.021682739
6.3631778 0.51960719 0.062652588
5.6254406 0.60837424 0.10123062
4.8826914 0.69921553 0.14300919
4.1562834 0.74496901 0.097770691
-2.8722157 1.7519766 0.78765488
-3.3633537 1.4046074 0.0011329651
-4.131011 1.468989 -0.014644623
-4.8804293 1.504459 -0.084762573
-5.6335516 1.5426499 -0.15013885
7.0160084 -0.13642916 0.45271683
6.3406634 -0.2036756 0.18770218
5.6028037 -0.1145595 0.23170471
4.8621593 -0.028687805 0.26852798
4.1315351 0.0270392 0.24538803
-2.7237868 1.8654324 2.7271042
-2.6626778 0.6750437 0.29652405
-3.3747444 0.66201937 0.13583374
-4.1367645 0.71842444 0.10818481
-4.887958 0.75688231 0.045753479
-5.6371994 0.79046881 -0.026302338
6.9189863 -0.66727483 0.96842194
6.3129077 -0.91191232 0.33887482
5.5803251 -0.83584535 0.36134338
4.8974671 -0.87697256 0.1462059
4.1620245 -0.80439222 0.16078949
3.3622723 -0.61125219 0.41732788
-2.1899037 0.28301969 1.2572556
-2.6271133 -0.13445696 0.29524994
-3.3913097 -0.071388572 0.28437805
-4.1428266 -0.029393524 0.23148727
-4.8944755 0.010132462 0.17336273
-5.6479874 0.049589783 0.11474609
6.8209348 -1.2037205 1.4895706
6.2849679 -1.6182674 0.49090958
5.5884023 -1.6240247 0.34738541
4.9265094 -1.7032312 0.051315308
4.2026243 -1.6486925 0.033245087
3.4010422 -1.4493335 0.31420517
-1.9375354 -0.84883058 0.61038971
-2.5649753 -0.97553575 0.21792603
-3.2786498 -0.97743452 0.079544067
-4.1523919 -0.77032793 0.36371613
-4.9045534 -0.7299093 0.30974197
6.7197771 -1.7407249 2.0272789
6.1622925 -2.1029656 1.115612
5.5728464 -2.3545706 0.44433975
4.9092484 -2.4254 0.16174316
4.1918163 -2.3828375 0.12155914
3.4009807 -2.2063773 0.36578369
-1.5109674 -1.179458 1.7288132
-1.8918601 -1.6675848 0.56999588
-2.5114255 -1.7975248 0.16403198
-3.2142348 -1.8094152 0.0053253174
-4.0374317 -1.6675066 0.16651154
-4.9220471 -1.4588674 0.46475983
6.3733311 -1.6973065 3.8687248
6.091033 -2.7147572 1.4839058
5.5210652 -3.0049908 0.71154022
4.856236 -3.0728705 0.43089676
4.1363416 -3.0282047 0.39781952
3.3333545 -2.8359001 0.68745422
-1.5556861 -0.80660474 4.4182034
-1.4483472 -2.0332739 1.627224
-1.9104654 -2.3918307 0.71857452
-2.5282364 -2.519685 0.30934143
-3.226624 -2.5359132 0.14075851
-4.0406685 -2.4079754 0.28080368
-5.2067394 -1.8660582 1.3033371
5.9107141 -1.425342 6.3276424
5.7468104 -2.7315114 3.2147789
5.4246373 -3.5644457 1.1887817
4.7635441 -3.6440356 0.87660599
4.0390854 -3.5974276 0.85028076
3.1342273 -3.2346675 1.5360069
-1.5315806 -1.6362804 4.4297352
-1.5617734 -2.6357405 2.0657349
-1.9860107 -3.0386026 1.0353317
-2.5972781 -3.1730011 0.60320282
-3.2983379 -3.1867383 0.43889236
-4.1334367 -3.0382187 0.63222504
6.3477368 -1.4877499 8.2837009
5.8410611 -2.1008513 6.6978626
5.4151487 -2.8141658 4.8835907
4.9021554 -3.2731912 3.6711426
4.5117025 -3.9177806 2.0306206
-1.7506834 -1.0187124 7.9003544
-1.7062699 -2.1833017 5.0774746
-1.9533621 -2.870189 3.3610954
-2.1964731 -3.513272 1.7519569
-2.7567945 -3.7152631 1.1554794
-3.4618363 -3.7287991 0.9899292
-4.5755582 -3.2631276 1.912487
6.6425357 -1.1417812 11.338539
6.2423396 -2.0979326 8.8666153
5.6930842 -2.6081517 7.484396
5.0751901 -2.9168317 6.5944271
4.3964286 -3.0725496 6.0764122
-1.6070405 -0.90263879 10.385902
-1.8626982 -1.6912092 8.3612194
-2.0192528 -2.5536501 6.170023
-2.4581094 -2.9841154 5.0084763
-2.8057384 -3.4987552 3.6531067
-3.8531022 -3.1277263 4.3860588
6.5744429 -1.8715919 11.718552
6.0677066 -2.5601389 9.8424644
5.4817047 -2.9948523 8.6079388
4.7777076 -3.1424634 8.0937309
3.8758249 -2.8990891 8.5534782
-1.2658366 0.23584715 15.693848
-1.3693641 -0.90470064 12.724636
-1.5973836 -1.7736315 10.434469
-2.0140729 -2.3156044 8.9543991
-2.413126 -2.8393433 7.524807
-2.9991894 -3.0876925 6.7722549
-3.9061408 -2.926471 7.0185814
6.8763108 -1.4876083 15.152182
6.4140739 -2.388119 12.66033
5.8311534 -2.9053071 11.169464
5.1597776 -3.1764419 10.319063
4.3681226 -3.182627 10.153606
3.2684817 -2.6231086 11.440964
-0.70851958 -0.19273552 17.183258
-0.97096074 -1.1279224 14.636385
-1.3737315 -1.7805623 12.817677
-1.7777463 -2.3776014 11.147223
-2.2845187 -2.791096 9.9476089
-2.8680391 -3.0752084 9.0790787
-3.6028862 -3.1526062 8.7341309
12.657438 3.4382293 32.361618
11.660908 3.3043935 31.804745
6.786778 -2.2052767 15.681168
6.1934419 -2.7854998 13.968134
5.5431519 -3.168766 12.787985
4.8040681 -3.3278968 12.209736
3.9072344 -3.1722598 12.470564
2.6430016 -2.3812072 14.416
-1.1620425 1.0102609 23.060505
-0.54140937 -1.382079 16.574465
-1.0112001 -1.9709052 14.860931
-1.5650469 -2.3919437 13.594675
-2.0745208 -2.8376138 12.268785
-2.6673746 -3.1409647 11.320004
-3.4111485 -3.2348032 10.92108
-4.4856062 -2.9282672 11.564966
13.584685 2.7237766 33.646534
12.629137 2.2766421 32.190239
11.613954 2.2671039 31.972012
5.9429946 1.169772 27.772324
6.5885878 -2.6734736 16.921732
5.9748011 -3.2141061 15.262808
5.2339425 -3.4233027 14.526194
4.4218616 -3.4695878 14.24127
3.4907677 -3.294348 14.566385
2.1466341 -2.4288583 16.784382
-0.35343596 0.22967616 23.903854
-0.41759285 -1.1453179 19.966324
-0.618909 -2.1889791 16.94891
-1.1561877 -2.6655297 15.487326
-1.7877554 -2.9739964 14.487865
-2.462266 -3.201539 13.711353
-3.1637805 -3.3775635 13.076839
-4.1088729 -3.248965 13.266167
13.572904 1.4055955 33.026741
12.561903 1.3491565 32.669708
6.7250538 0.60467684 29.371
6.0231619 -0.11654767 27.107113
6.2175951 -2.7727509 19.292339
5.6901612 -3.5290086 16.957722
4.9529505 -3.7710204 16.103672
4.0893955 -3.748282 16.008417
3.0576503 -3.4330142 16.746191
0.1094884 0.028021485 26.421852
-0.4365029 -0.64845765 24.319557
-0.56164348 -1.8884374 20.63081
-0.83893335 -2.7954113 17.897758
-1.399906 -3.2347393 16.493629
-2.0805447 -3.480372 15.639519
-2.8270135 -3.623498 15.076021
-3.7274117 -3.5703466 15.063728
-9.9252796 2.604543 32.149757
-10.943599 2.5578125 31.820042
13.377256 1.3369514 36.132404
12.323071 1.3474556 35.966251
11.085851 2.1936114 38.325649
7.3655019 0.48351803 32.386902
6.7600026 -0.59509063 28.968704
5.9804091 -1.0870855 27.314823
5.1969514 -1.4974254 25.910364
5.2463861 -3.5543563 19.618328
4.4789014 -3.7823632 18.775446
3.5699356 -3.7284939 18.769461
0.5890708 -0.17206535 29.10364
0.096269876 -0.9863112 26.516514
-0.50205839 -1.5564926 24.657213
-1.157267 -1.9887049 23.209877
-1.2125822 -3.207032 19.467169
-1.8008159 -3.6153495 18.105633
-2.5372925 -3.8020389 17.395157
-3.4106891 -3.8079815 17.212631
-10.163445 3.0128825 36.837658
-10.952715 2.6557205 35.595013
-10.99387 1.519269 32.105793
13.205032 1.036823 38.719154
12.187401 0.72560287 37.538517
11.029683 1.1257278 38.592464
7.4153514 -0.80151749 31.786919
6.6628246 -1.4491543 29.586891
5.8706279 -1.9024915 27.996964
5.0461249 -2.2203102 26.831688
4.1974311 -2.4466264 25.952694
3.2620397 -2.4839513 25.658077
2.1103792 -2.1422853 26.527355
0.49239025 -1.0783499 29.604563
-0.0848113 -1.7367368 27.403353
-0.77790594 -2.1577981 25.934654
-1.6062176 -2.3493378 25.170029
-2.6172857 -2.2802072 25.199532
-4.1218219 -1.5906174 27.108263
-9.4333067 2.3046286 38.489616
-10.098248 1.7926117 36.737122
-10.872188 1.4367453 35.460426
-11.650598 1.1114112 34.279938
13.048755 0.57386172 40.949249
12.037295 0.14032975 39.327682
10.924662 0.26489252 39.529587
9.7150803 0.71056652 40.773384
7.2983246 -1.6276321 32.599297
6.5262361 -2.2172637 30.50741
5.7148881 -2.6266768 29.003117
4.8435893 -2.8536444 28.089874
3.920372 -2.9509959 27.594782
2.8608344 -2.7939842 27.913807
1.2212479 -1.6890107 31.25333
0.26298836 -1.7809764 30.769428
-0.41732213 -2.2764266 29.005741
-1.1312525 -2.6737628 27.559647
-2.0312905 -2.7825704 27.031094
-3.097908 -2.6680059 27.208649
-4.5671978 -2.0709035 28.903511
-8.5790396 1.454421 39.787346
-9.4128847 1.1208295 38.52914
-10.274759 0.8436085 37.451763
11.892521 -0.51067841 41.011482
10.79095 -0.496887 40.851589
9.5898914 -0.13870546 41.855423
7.1367831 -2.354836 33.784927
6.3197474 -2.840625 31.96328
5.5037303 -3.2515247 30.398952
4.575263 -3.3820841 29.776003
3.5637116 -3.3433669 29.718626
2.3275664 -2.9265535 30.917168
0.47369924 -1.5698113 35.226692
-0.0076322854 -2.4422042 32.140816
-0.74200976 -2.8588352 30.57217
-1.5560029 -3.1248994 29.50551
-2.4632778 -3.2446444 28.923679
-3.5635643 -3.1154969 29.160093
-5.3671637 -2.1695881 32.068501
-8.6386728 0.35155287 40.109215
-9.6233187 0.19372442 39.382069
-10.863519 0.31391552 39.561409
10.609112 -1.0998325 42.816456
9.3984718 -0.78587675 43.711227
6.9172745 -2.96455 35.454628
6.0651846 -3.3867822 33.784634
5.164928 -3.6447952 32.692741
4.1867905 -3.7188766 32.243843
3.0580823 -3.5194895 32.744392
1.0897226 -1.9706885 37.911774
0.062760383 -2.0567148 37.410976
-0.43127677 -2.9068599 34.278355
-1.1350782 -3.3776495 32.462646
-1.9966053 -3.5948184 31.524078
-3.0132256 -3.5984538 31.319815
-4.2903743 -3.2932923 32.170631
-7.9241929 -0.34779868 42.018513
-8.9001284 -0.53227675 41.175308
-10.049068 -0.52185762 40.996403
10.358747 -1.4938632 45.690022
9.1855125 -1.4031061 45.807693
7.8443189 -0.85789263 47.588303
6.2838264 0.13185754 50.985188
6.6516509 -3.5016203 37.506264
5.735146 -3.8110933 36.179905
4.7208457 -3.8822136 35.723892
3.6298885 -3.8050773 35.806259
2.2936361 -3.3271999 37.336716
0.61665297 -2.3752134 40.570877
-0.013181537 -3.0826395 37.81461
-0.94195414 -3.2939014 36.852139
-1.7122294 -3.6915424 35.224541
-2.6211438 -3.8753576 34.368145
-3.7652268 -3.7613411 34.578037
-7.3757863 -0.85531461 44.734432
-8.2881374 -1.1359586 43.51635
-9.5236702 -1.0566751 43.579521
10.070359 -1.820279 49.049191
8.9547997 -2.0106535 48.0979
7.6440959 -1.6306161 49.331356
6.3273768 -1.3136958 50.317871
5.2440071 -1.5689276 49.120052
5.4687533 -4.4140329 38.082134
4.3928032 -4.4004478 37.932613
3.3032234 -4.3653831 37.864182
2.0864329 -4.1309576 38.548225
-0.49116001 -1.8813983 46.824139
-0.19848117 -3.9560509 38.799511
-1.1233386 -4.1735392 37.778511
-2.2091312 -4.1646819 37.60873
-3.2326932 -4.231308 37.156681
-4.4693346 -4.0483871 37.636406
-7.7431216 -1.6644295 46.304749
8.6579666 -2.4749985 51.142441
7.4620366 -2.4844465 50.878941
6.1771669 -2.2863636 51.444286
5.0911584 -2.5421803 50.197655
3.9749494 -2.6967514 49.357864
4.0883141 -5.0056562 39.971695
2.9927735 -4.9937668 39.814026
0.26841989 -2.4868102 49.515923
-0.8610431 -2.5867848 48.896084
-2.0934057 -2.5359087 48.871521
-1.4364697 -4.8995304 39.364677
-2.5570126 -4.8662462 39.289474
-6.1010027 -2.0580747 50.064445
-7.208456 -2.1786628 49.364765
8.4064703 -3.131058 53.640808
7.2335963 -3.2539337 52.895409
5.9594026 -3.1289699 53.189342
4.8633351 -3.3829844 51.898361
3.6523376 -3.3838818 51.666695
2.4041488 -3.3218384 51.696823
0.98021281 -2.9933207 52.831856
-0.076641887 -3.2455184 51.556015
-1.2893425 -3.2525094 51.298004
-2.522707 -3.2320426 51.153362
-3.990293 -2.9288905 52.17186
-5.230814 -2.919471 51.978699
-6.4680839 -2.9145601 51.766891
3.3663588 -1.8446125 64.169006
3.0099714 -3.5605552 56.406174
1.89372 -3.7908046 55.163528
0.4516243 -3.5021837 56.186638
-0.49526414 -3.941169 54.0397
-1.7342983 -3.9441264 53.793327
-2.9941142 -3.9212296 53.658997
1.8104156 -2.9193943 65.372704
0.50861347 -2.9985883 64.753967
7.4810753 5.946393 -0.1902504
6.5357924 5.9847779 -0.4222641
8.021616 5.205811 0.30974579
7.375493 5.2132225 -0.11897278
6.4844112 5.2419696 -0.38832474
5.1259003 5.3107715 -0.36501312
-3.7923326 5.8125896 0.65948105
-3.8550663 5.7661161 -0.20215607
-5.1052647 5.8172269 -0.3927803
8.0035505 4.4644036 0.32221222
7.7250538 4.442853 -0.35494995
6.5175095 4.4915252 -0.41018677
-3.5141478 4.963336 0.49855042
-3.8318882 4.9416475 -0.215271
-5.0749388 4.984972 -0.40955353
4.5339241 5.8698788 49.592453
3.219357 5.9098706 49.431046
-1.5813103 6.1003561 49.92263
8.284049 3.7034762 0.12867355
7.3262825 3.7286336 -0.085739136
6.3042221 3.7573392 -0.26931
4.9415665 3.8066347 -0.2458992
-3.423008 4.1691074 1.3543816
-3.3810844 4.1292744 0.42157745
-3.8832588 4.1221013 -0.186203
-5.2587175 4.165885 -0.3079071
2.2537365 5.2479315 64.372597
1.3152361 5.2436018 63.431175
1.0813799 5.1833839 61.398346
5.740272 4.6725802 49.886017
4.9533806 4.6652513 48.984215
13.045662 3.9923308 35.504768
12.921969 3.9456925 33.979912
12.450806 3.925678 32.964783
11.541671 3.9377079 32.546165
-2.0012932 4.845861 48.475388
-9.4496946 4.5764265 33.855949
8.1286106 2.9719727 0.23591995
7.3357849 2.98368 -0.092163086
6.0894127 3.0178869 -0.12742615
4.7065754 3.0582235 -0.094047546
-3.2224951 3.3572876 2.1582603
-2.785696 3.3060572 0.97737503
-3.292058 3.3004532 0.37007141
-3.9718647 3.3030977 -0.13608551
-5.472209 3.3439031 -0.18983459
3.6733437 3.9108253 64.515335
3.0721731 3.8872042 63.038963
2.830081 3.8425689 61.020432
1.8631849 3.8424916 60.183037
5.9180579 3.5474412 51.719452
5.851871 3.4995434 49.720421
13.644637 3.0046868 36.381264
13.640486 2.9623635 34.661766
13.306305 2.9395251 33.447479
12.781459 2.9277439 32.516983
11.628597 2.9501593 32.431053
2.3633535 3.4036899 42.824257
1.9950597 3.3780046 41.465118
5.3858337 3.1581779 35.478333
4.9282374 3.1408939 34.382759
4.8324661 3.105777 32.876389
-9.4684477 3.4347372 33.874207
-9.8685341 3.4138999 32.684204
7.7193289 2.2680848 1.404686
7.6408472 2.2492282 0.57246399
7.3020744 2.2406063 -0.069404602
5.8730526 2.2731118 0.015487671
4.469593 2.3040557 0.059093475
-3.002346 2.5115635 2.0251083
-2.8420591 2.4831326 1.0107269
-3.1659107 2.4724228 0.29709625
-4.309413 2.4907842 0.054862976
-5.6876783 2.51702 -0.070648193
4.1845245 2.629364 66.176178
3.8990793 2.5999098 64.138634
3.5458355 2.5741477 62.267143
2.999938 2.5569477 60.750114
5.6457286 2.4133992 54.303146
12.669204 2.1026783 41.46685
13.159221 2.0531459 38.87735
13.72282 2.0022411 36.267899
13.866806 1.9685135 34.341003
13.486175 1.9551238 33.198296
12.969714 1.9470556 32.262024
6.0836139 2.1682661 39.773308
6.5280604 2.1234608 37.431976
6.5966368 2.0930016 35.638786
6.510025 2.068701 34.086227
6.3931847 2.0460587 32.608437
6.2705421 2.024189 31.172623
5.9220042 2.0103798 30.032089
5.550827 1.9976568 28.938103
5.1254849 1.9870032 27.92321
4.4886775 1.9833822 27.153549
3.7908204 1.9817806 26.454018
2.7669868 1.9904124 26.095566
-0.92625833 2.0813572 28.43969
-1.2049444 2.0658705 27.257423
-2.1013989 2.0693974 26.698418
-10.102291 2.2850041 32.907043
-11.27158 2.294059 32.448822
7.6894064 1.5149177 1.4257774
7.6154547 1.5022236 0.58997726
7.1518927 1.499625 0.031986237
5.6551313 1.5229565 0.15942001
4.2178068 1.5443746 0.22179413
-2.9787626 1.6912909 2.947052
-2.9313231 1.6747515 1.9821472
-2.9426842 1.659918 1.0702515
-3.1005383 1.6488223 0.25927734
-4.5089226 1.6672988 0.16772461
-5.9085112 1.6852448 0.051490784
4.2914619 1.3155553 65.993393
3.9776688 1.3014537 64.007484
3.5207663 1.2907223 62.307999
3.0957747 1.2796746 60.597595
12.121902 1.0811241 44.236053
12.956406 1.0488507 41.030693
13.028324 1.0322332 39.071587
12.843864 1.0209696 37.542442
11.925327 1.0237867 37.092552
4.0522537 1.155071 46.267448
6.4086342 1.0962623 41.147743
7.0555077 1.0697926 38.486397
7.2940178 1.0512778 36.440254
7.3144875 1.0370704 34.729874
7.1580119 1.0262913 33.283813
6.9569016 1.0165515 31.925667
6.6987877 1.0080198 30.66526
6.3950992 1.0004605 29.48378
6.0390739 0.99394822 28.384506
5.5816646 0.98923969 27.417145
5.1340141 0.98448902 26.453087
4.7338524 0.97910076 25.452438
4.4906311 0.9713856 24.304207
4.1584654 0.96522576 23.268383
3.8281789 0.9591797 22.248032
-0.54542923 1.0143349 25.182846
5.3119273 0.91547984 18.213081
5.3610148 0.90459138 16.93108
5.2048264 0.89694101 15.865799
4.6894789 0.89464468 15.141853
-2.065022 0.97109193 18.612095
-2.1145658 0.96157026 17.411232
-2.3272514 0.95450532 16.368423
-2.8255501 0.95149779 15.572678
7.1624575 0.77488863 2.7097893
7.4678907 0.76344931 1.581974
7.3751516 0.75731444 0.75577545
6.9379721 0.75565225 0.17639542
5.4356318 0.76736224 0.3044014
4.0732985 0.77711505 0.31517792
-2.6090202 0.85207617 3.6669502
-2.4836082 0.84275031 2.6408577
-2.4559059 0.83477384 1.6945953
-2.6783628 0.82993323 0.91388702
-3.2685947 0.82953751 0.35649872
-4.7205143 0.83926934 0.28741455
-6.133111 0.84837186 0.17572021
4.2844276 0.0062696333 66.005409
4.5313644 0.0062696333 63.083492
9.279808 0.0062696333 52.923706
10.869136 0.0062696333 48.226982
11.990017 0.0062696333 44.441063
12.435867 0.0062696333 41.821205
12.192132 0.0062696333 40.312378
11.227383 0.0062696333 39.886459
4.4380183 0.0062696333 47.703911
4.1671867 0.0062696333 46.108231
6.9248042 0.0062696333 40.448692
7.3946071 0.0062696333 38.037392
7.7033234 0.0062696333 35.910309
7.5531073 0.0062696333 34.42775
7.3688507 0.0062696333 33.022736
7.1922145 0.0062696333 31.640663
6.9249759 0.0062696333 30.397278
6.6016426 0.0062696333 29.244408
6.2203484 0.0062696333 28.17897
5.7909961 0.0062696333 27.184929
5.3817487 0.0062696333 26.184189
4.976459 0.0062696333 25.194771
4.8004723 0.0062696333 23.982189
4.3702922 0.0062696333 23.052948
5.9881897 0.0062696333 20.098206
6.2975492 0.0062696333 18.517517
6.4389257 0.0062696333 17.138741
6.3679614 0.0062696333 15.991627
6.2382164 0.0062696333 14.922192
6.1578178 0.0062696333 13.829597
6.1218796 0.0062696333 12.720247
6.0267982 0.0062696333 11.684608
6.0098457 0.0062696333 10.603691
5.9267101 0.0062696333 9.5993938
5.8299255 0.0062696333 8.6253872
5.6869164 0.0062696333 7.7059669
5.5461531 0.0062696333 6.8009968
5.5283051 0.0062696333 5.8192863
5.8716812 0.0062696333 4.5908451
6.9728975 0.0062696333 2.846386
7.2252474 0.0062696333 1.753067
7.0952578 0.0062696333 0.94889069
6.6935501 0.0062696333 0.34140778
5.2145329 0.0062696333 0.45044708
3.8056946 0.0062696333 0.48810577
-1.9505415 0.0062696333 3.2506828
-1.9468431 0.0062696333 2.3089371
-2.116436 0.0062696333 1.4892731
-2.3371162 0.0062696333 0.71202469
-3.5391359 0.0062696333 0.51300812
-4.9521132 0.0062696333 0.41843033
8.9304199 -1.1858279 55.742516
9.6002769 -1.153607 52.401505
10.647045 -1.1147656 48.580414
10.855431 -1.0937554 46.204765
11.032188 -1.0739872 43.952904
10.248615 -1.073325 43.196281
5.0494342 -1.1566494 48.844925
4.2624054 -1.1548976 47.952789
3.9442406 -1.1445284 46.417084
6.9470253 -1.073909 40.418602
7.4998507 -1.049264 37.898033
7.7033234 -1.031478 35.910309
7.5597525 -1.020238 34.419334
7.3570595 -1.0103136 33.037338
7.1575432 -1.0005912 31.682655
6.9081717 -0.9919557 30.417183
6.5324049 -0.9856388 29.324646
6.1543651 -0.97951633 28.253784
5.7384453 -0.97415823 27.243217
5.3476181 -0.96852827 26.221237
4.973186 -0.96277368 25.198242
4.8826637 -0.95271546 23.896767
5.9425964 -0.92511159 21.453873
6.5252461 -0.90543777 19.563679
6.7105522 -0.89221448 18.11524
6.7949219 -0.88079733 16.799383
6.7724915 -0.8712123 15.614214
6.6210332 -0.86372316 14.572636
6.587719 -0.85469162 13.445393
6.5326338 -0.84616649 12.360962
6.4583473 -0.83809513 11.315151
6.3965025 -0.83002073 10.279701
6.2966919 -0.82264078 9.2959709
6.1630373 -0.81587738 8.358017
6.0028896 -0.80961168 7.4577541
5.829361 -0.80365288 6.5832615
5.9384432 -0.79406071 5.5106926
6.2463675 -0.78204519 4.3149529
6.7520123 -0.76769269 3.0055504
6.9805851 -0.75719196 1.9255753
6.7899561 -0.7522462 1.1595421
6.4374933 -0.74944127 0.5142746
5.1431732 -0.75848573 0.49757385
3.8969889 -0.76676321 0.42911148
-1.700901 -0.82837492 3.0928688
-1.6685381 -0.82028508 2.1368408
-1.7800865 -0.81407964 1.2858353
-2.2913036 -0.81276566 0.68491745
-3.2762566 -0.81708914 0.3609314
-5.2175941 -0.83256829 0.56860733
9.1183357 -2.3332348 53.186821
8.7433939 -2.3126247 51.609917
7.9515648 -2.3092055 50.718773
5.9124455 -2.3547313 51.727982
5.212841 -2.3472381 50.668655
4.4868388 -2.3409648 49.660728
3.679852 -2.3379056 48.778412
2.5000839 -2.3487132 48.417725
6.7472229 -2.1613719 40.689194
7.163208 -2.1169033 38.343788
7.3468895 -2.081871 36.371803
7.2442703 -2.0577898 34.818779
7.1050067 -2.035605 33.349457
6.8116379 -2.0192485 32.101608
6.5222206 -2.0031757 30.874443
6.2000999 -1.988595 29.709785
5.8267441 -1.9760587 28.625252
5.3912163 -1.9658465 27.628418
4.950676 -1.9560426 26.652084
4.5740433 -1.9444509 25.622169
4.5797424 -1.9211752 24.211586
5.9357328 -1.856705 21.46085
6.5263171 -1.8171123 19.562616
6.7263598 -1.7902212 18.099842
6.8192258 -1.7671386 16.776211
6.7807198 -1.7484514 15.606537
6.6696391 -1.7322967 14.528255
6.6140175 -1.7148933 13.421892
6.5316353 -1.6986314 12.361832
6.4575539 -1.6824824 11.315832
6.3974867 -1.6662836 10.278877
6.3289814 -1.6506578 9.2694893
6.1926041 -1.6372145 8.3342819
6.0050163 -1.6254354 7.4560833
5.8127756 -1.6140203 6.5960083
5.9059086 -1.5952553 5.5351791
6.2584801 -1.5700417 4.3060322
6.5066137 -1.5480443 3.182373
6.7045765 -1.5277698 2.1202011
6.4782448 -1.518721 1.3746109
6.1792183 -1.5116836 0.68862915
5.2672043 -1.5201343 0.41564941
4.1694613 -1.533035 0.25304031
-1.5891218 -1.6602716 3.0222092
-1.4493675 -1.6415018 2.0013084
-1.6694298 -1.6317586 1.2189102
-2.1751442 -1.6290231 0.61620712
-3.1122112 -1.6365598 0.26602936
4.654664 -3.6635153 55.84375
4.899147 -3.5947523 53.266823
3.7968674 -3.6059504 52.76976
1.9136925 -3.6613748 53.391983
-0.041469574 -3.7192743 54.052437
-1.1727328 -3.729867 53.505814
5.8307872 -3.2953088 41.930328
6.6343422 -3.2070179 39.044075
6.7484355 -3.157789 37.146645
6.5455894 -3.1265087 35.70343
6.3100815 -3.0977395 34.333824
6.0727801 -3.0698044 32.996506
5.8474574 -3.0419767 31.673874
5.5609131 -3.0179021 30.450584
5.1893578 -2.9986134 29.347961
4.4531932 -2.9975336 28.669006
3.6155393 -3.0013571 28.101273
-1.2050359 -3.1941905 31.760002
-1.4348946 -3.1670797 30.462524
-1.9650917 -3.1545293 29.496223
6.0651927 -2.7499368 20.021564
6.318912 -2.7069266 18.496714
6.4780154 -2.6691267 17.101475
6.4191942 -2.641825 15.943829
6.3365965 -2.6161683 14.832361
6.249043 -2.5912874 13.748074
6.154191 -2.5672574 12.691982
6.0610809 -2.5436678 11.655251
6.0296125 -2.5179918 10.587124
5.9987793 -2.4928279 9.5402927
5.9211035 -2.4701097 8.5522041
5.7195778 -2.4528928 7.6803055
5.5210304 -2.4359062 6.8203011
5.435051 -2.4147763 5.8894539
5.8909225 -2.372695 4.5766773
6.2316818 -2.3359385 3.3804779
6.2375765 -2.3128502 2.4494934
6.130024 -2.2945528 1.6148643
5.8272438 -2.2840116 0.92625046
5.1906424 -2.2862129 0.46622467
4.027566 -2.3079686 0.34472656
-1.4165001 -2.4871767 2.9130859
-1.5611992 -2.4694731 2.0704651
-1.755024 -2.4538708 1.2706757
-2.2828941 -2.4505346 0.6799469
-3.284153 -2.4640875 0.3655014
5.5103374 -4.3589544 40.532402
5.6897202 -4.2875981 38.517426
5.1006889 -4.2719345 37.532906
3.2342455 -4.3449492 38.142677
-0.76253867 -4.5031657 39.505074
-1.4665871 -4.4932256 38.595337
-3.1593819 -4.5484576 38.814201
4.6279025 -3.7134769 20.14382
5.3306971 -3.6294503 18.195187
5.4249539 -3.5832415 16.871426
5.3017197 -3.5507567 15.77733
4.8429451 -3.5383654 15.0047
-2.8209801 -3.8544443 18.003147
-3.232265 -3.836762 17.11062
5.0350084 -3.1789892 4.2427673
5.3488798 -3.1317151 3.0761147
5.8758926 -3.0744712 1.7902069
5.5698853 -3.0604551 1.0999832
4.8815241 -3.0658603 0.6703949
-2.6938047 -3.381125 3.7205467
-2.1033125 -3.3211279 2.4057007
-2.1126585 -3.2911799 1.4869843
-2.6861992 -3.2887592 0.9185257
4.7442217 -3.8793366 1.6573868
7.9106183 6.1872454 -0.83893967
7.2310138 6.1953568 -1.0096741
6.6955943 6.1730342 -1.4586906
5.8354373 6.217977 -1.2949829
-4.9160252 6.5973639 -1.2462158
7.9143019 5.4997563 -0.84632874
7.4767084 5.4611044 -1.4897499
6.6723385 5.4921508 -1.4144287
5.8887343 5.5181127 -1.3938408
-3.3368416 5.833972 -1.0256004
-3.928833 5.8211617 -1.4095802
-4.7518044 5.8416486 -1.4714813
-5.6501284 5.8720155 -1.4404259
8.177907 4.7683544 -1.3753471
7.3813944 4.7950602 -1.3035126
6.7032571 4.8013983 -1.473278
5.8158917 4.8407025 -1.2587166
-3.260005 5.0956125 -1.1356239
-3.9774866 5.100461 -1.3413963
-4.7650137 5.1138716 -1.4533539
-5.6973085 5.1445761 -1.3770676
8.6174355 4.1172128 -0.72844315
8.1085339 4.0981436 -1.2361221
7.3810806 4.1109915 -1.3028984
6.6460848 4.1243329 -1.3644524
5.8657866 4.1432762 -1.3512726
-3.1525202 4.432786 -0.039413452
-3.3832903 4.382175 -0.959095
-3.9360857 4.3682261 -1.3994102
-4.8074245 4.3887405 -1.3951874
-5.7877159 4.4200239 -1.2556496
4.6539912 6.008853 48.560608
3.3429134 6.0436335 48.745533
-1.7593589 6.1388764 48.674397
8.6605206 3.4267147 -0.81728745
8.17309 3.4083431 -1.3656769
7.3872361 3.4261427 -1.3149147
6.5857892 3.444978 -1.249691
5.7911696 3.4622407 -1.2128677
5.0075302 3.477567 -1.2100258
-2.8342752 3.6652417 -0.50521851
-3.1912594 3.6351898 -1.234066
-4.053237 3.65183 -1.2352448
-4.884902 3.6652207 -1.2889099
-5.911109 3.6951947 -1.0899277
13.230849 4.0837488 33.97963
12.727609 4.0073757 31.905243
11.728952 4.0178814 31.7827
5.9319181 4.7836866 48.441246
4.9558983 4.7624531 47.545151
3.7837799 4.7714567 47.319332
2.6940756 4.7681684 46.822071
0.72394902 4.8860178 48.973885
0.021217167 4.8278737 47.27253
-1.2837634 4.8509688 47.343239
-2.7065735 4.8874741 47.699417
8.0827579 2.7999256 0.37414551
8.0799742 2.7369542 -1.1788139
7.3269329 2.7478836 -1.1970978
6.5234733 2.763015 -1.1310883
5.7162743 2.7778449 -1.0739403
4.935606 2.7897 -1.0799561
-2.4676085 2.9576073 0.23023605
-2.7415648 2.9265044 -0.64091873
-3.2793837 2.9158924 -1.1078758
-4.1532478 2.9299545 -1.0950966
-4.9674435 2.9393039 -1.1756935
-5.9416723 2.9595487 -1.0488853
14.172462 3.065855 34.387783
13.673435 3.0055852 32.216755
12.86559 2.9894972 31.379551
11.907242 2.9931042 31.132019
5.9997258 3.5813186 48.203819
5.0162334 3.5665302 47.342224
4.2827802 3.5252326 45.705055
3.4926078 3.4927082 44.334515
5.6912675 3.1543829 34.057213
5.3105092 3.0945423 31.945469
4.4237728 3.0872889 31.368423
0.224747 3.3917172 39.767807
-2.2474725 3.244957 34.001087
-2.6970775 3.1991415 32.323895
8.1323166 2.0978253 0.27194595
7.8594899 2.0703118 -0.73633194
7.2645764 2.0669131 -1.0752525
6.460897 2.0781808 -1.0119781
5.6438575 2.0898807 -0.93961334
4.8633499 2.0986593 -0.9492836
-2.4896469 2.2611737 1.582222
-2.4753857 2.2202172 0.24186707
-2.7001848 2.1941214 -0.70147705
-3.367795 2.193367 -0.98128128
-4.2248764 2.2029204 -0.9947319
-5.0504322 2.2104745 -1.0618477
14.38822 2.0260613 33.487778
13.7658 1.9976335 31.848867
12.97638 1.9856663 30.957479
6.0105882 2.4798038 52.652252
5.8805714 2.3990235 48.621025
5.1795135 2.3673694 46.793045
6.8173566 2.1662498 37.505692
6.9798012 2.0831416 33.471439
6.7800956 2.030236 30.787506
6.3584924 1.9953846 28.908676
5.839541 1.9689161 27.405849
5.1948795 1.9518721 26.319538
4.5054259 1.9385238 25.398258
3.7869172 1.9276327 24.587013
0.076237857 2.0896504 31.15531
-0.18921465 2.0499625 29.097759
-0.45243233 2.0121789 27.134905
-0.91607541 1.986957 25.714657
-1.6324909 1.9761034 24.906052
-8.9833469 2.3025517 38.188522
8.029521 1.4057375 0.4839325
7.8711886 1.3817307 -0.75981522
7.2035232 1.3829252 -0.95596313
6.3980575 1.3904576 -0.89236832
5.5795131 1.3982638 -0.82025909
4.7907581 1.404422 -0.81800079
-2.5086012 1.5102744 1.6112328
-2.4944324 1.4829608 0.27038193
-2.6623688 1.4634213 -0.75683975
-3.4775448 1.4683735 -0.82412338
-4.3087196 1.4737371 -0.87723541
-5.1382084 1.4788624 -0.94145584
13.46403 1.0588548 37.342987
12.806704 1.0444208 35.669037
11.058599 1.0775148 38.263645
6.3006558 1.2311739 51.593628
5.7606106 1.2073721 49.041023
5.1813936 1.1867481 46.786716
7.7580786 1.0517431 34.462452
7.5510411 1.0244404 31.691936
7.1590009 1.0052421 29.64966
6.6979446 0.98953313 27.924999
6.1392179 0.97792292 26.567081
5.5585504 0.9676795 25.335516
5.0100379 0.95703989 24.077175
4.6859579 0.94034708 22.30785
5.8090239 0.8828811 17.071957
5.712965 0.86261159 15.037144
5.2113867 0.85445797 14.041788
4.0349169 0.86469275 14.601337
-0.56307262 0.96338367 22.573784
-1.1588635 0.9558118 21.599798
7.6874857 0.71448386 1.1892548
7.7066302 0.69798791 -0.42956924
7.1422186 0.69605011 -0.8361702
6.3322477 0.69988918 -0.76710892
5.5192118 0.70363504 -0.70840836
4.7178345 0.70696634 -0.68611908
-2.14079 0.76488531 2.4036407
-1.9874878 0.74816173 0.81362915
-2.2452955 0.73986751 -0.10246658
-2.7241716 0.73600268 -0.66637421
-3.5686827 0.73899853 -0.69361877
-4.39044 0.74148166 -0.76272583
-5.2211676 0.74404168 -0.82766342
12.839432 0.0062696347 39.948467
12.023209 0.0062696347 38.789787
10.688349 0.0062696347 39.674206
6.6853542 0.0062696347 50.18964
5.919775 0.0062696347 48.483765
7.3878183 0.0062696347 39.365669
8.0341053 0.0062696347 33.5695
7.7291017 0.0062696347 31.137249
7.3229704 0.0062696347 29.157261
6.8243594 0.0062696347 27.558693
6.2695932 0.0062696347 26.202183
5.7299085 0.0062696347 24.871857
5.277688 0.0062696347 23.376457
6.8285837 0.0062696347 16.876074
6.7658186 0.0062696347 14.721466
6.5752144 0.0062696347 12.983019
6.4869523 0.0062696347 11.093042
6.3932285 0.0062696347 9.3077221
6.2514706 0.0062696347 7.7121429
6.0368066 0.0062696347 6.3442249
7.2711959 0.0062696347 2.0477066
7.5030756 0.0062696347 -0.021076202
7.0721436 0.0062696347 -0.69924545
6.2640152 0.0062696347 -0.63723755
5.4508624 0.0062696347 -0.58162689
4.6445665 0.0062696347 -0.55361557
-1.7608538 0.0062696347 9.337225
-1.8882647 0.0062696347 7.9307785
-1.7233973 0.0062696347 6.0863495
-1.5602846 0.0062696347 4.3179207
-1.5232992 0.0062696347 2.8204575
-1.6040583 0.0062696347 1.5631828
-1.7388887 0.0062696347 0.43311691
-1.9994459 0.0062696347 -0.47038651
-2.8047476 0.0062696347 -0.54843903
-3.6490297 0.0062696347 -0.57856369
-4.481246 0.0062696347 -0.63547897
-5.3192444 0.0062696347 -0.69313812
11.133334 -1.1539732 47.065384
11.166096 -1.1045282 42.203728
9.3848476 -1.1361461 44.640171
6.7698293 -1.1994464 49.881332
5.9585862 -1.1870338 48.347847
7.5242128 -1.0851959 38.906929
8.0380192 -1.0289321 33.556824
7.6951542 -1.0067887 31.243021
7.3048315 -0.98769534 29.211744
6.7788444 -0.97430223 27.690571
6.2329512 -0.96235919 26.304743
5.7064166 -0.95050853 24.935417
5.3240118 -0.9349454 23.255175
7.1911359 -0.85367572 15.956972
7.0722661 -0.83396614 13.968636
6.9818535 -0.81449115 12.014303
6.8463335 -0.79724288 10.262251
6.7265635 -0.78043377 8.559494
6.5241761 -0.76658887 7.1173973
6.2745738 -0.75459915 5.8401356
6.5694242 -0.72966564 3.4948692
7.2966003 -0.69538468 0.39328766
6.9947672 -0.68700486 -0.54806519
6.1986842 -0.69044632 -0.51288986
5.4432178 -0.69282001 -0.56745529
4.7079849 -0.69464588 -0.66831207
3.7537689 -0.70116425 -0.39021683
-1.5211782 -0.79960465 7.2989578
-1.2913694 -0.77905005 5.3605156
-1.2325859 -0.76279223 3.7803116
-1.3087511 -0.74986261 2.4766426
-1.3120155 -0.73596984 1.1058807
-1.517272 -0.7264995 0.093914032
-2.0315695 -0.72325557 -0.42230606
-2.7333736 -0.72363555 -0.65291214
-3.6871843 -0.7286399 -0.52392578
-4.5731668 -0.73224795 -0.50666428
9.1097546 -2.3974376 50.394352
8.02981 -2.3937981 49.802456
6.4617996 -2.4303579 51.005524
5.6152248 -2.4073889 49.550037
4.7163858 -2.3900225 48.350742
7.7472663 -2.0854707 34.497421
7.4712024 -2.0357366 31.940647
7.0266161 -2.0007665 30.047195
6.5596938 -1.9694568 28.32563
6.0121264 -1.9452388 26.922802
5.4346008 -1.9243149 25.670898
4.9374871 -1.8996865 24.267109
7.2464061 -1.7103499 15.816849
7.1159949 -1.6716835 13.861217
7.002389 -1.6340998 11.965372
6.8712788 -1.5993921 10.204584
6.7682686 -1.5649146 8.4658813
6.5582929 -1.5376736 7.0430012
6.2841048 -1.5149841 5.8199291
6.6381712 -1.4621919 3.3531036
7.083559 -1.4073639 0.82081985
6.7813697 -1.3903928 -0.13109207
6.1196299 -1.3908275 -0.36243057
5.5017896 -1.3892515 -0.67609787
4.7820005 -1.392272 -0.80216217
3.8566008 -1.404121 -0.57160568
-1.5041389 -1.6047519 7.2696362
-1.2443504 -1.5624025 5.2815113
-1.1900091 -1.5301069 3.7104607
-1.2830095 -1.5049585 2.4353981
-1.1091881 -1.4701936 0.78827286
-1.4224606 -1.4555897 -0.051197052
-1.9495935 -1.4496565 -0.54498672
-2.6481762 -1.4503505 -0.77761078
-3.5600538 -1.4588706 -0.70597076
-4.6835518 -1.4747591 -0.35198593
4.9207735 -3.6962857 51.981461
3.5526962 -3.7208076 52.264671
7.1683416 -3.195066 36.370262
6.8673077 -3.1210105 33.821873
6.4878135 -3.0597885 31.665201
6.1108656 -3.0021181 29.626232
5.5999651 -2.9608912 28.076389
4.8156557 -2.9477699 27.34565
3.9647422 -2.9414752 26.813795
6.9581156 -2.5942531 16.547705
6.8701825 -2.5318947 14.465078
6.7389669 -2.476445 12.592918
6.5875015 -2.4254858 10.86059
6.5248947 -2.3699605 9.0121632
6.3815441 -2.3234308 7.4284649
6.1129036 -2.2886469 6.1828938
6.0237527 -2.2421241 4.6201267
6.8066821 -2.1343091 1.3764648
6.5142698 -2.1077118 0.39080429
6.0794129 -2.0921736 -0.2858696
5.4883342 -2.0879283 -0.65114212
4.7662868 -2.0925903 -0.77373886
3.8282909 -2.1111653 -0.52166748
-1.8173027 -2.4303062 7.8086433
-1.615941 -2.3700573 5.9058113
-1.4347467 -2.313359 4.1119652
-1.1194468 -2.2506945 2.1732826
-1.1759739 -2.2123842 0.89285278
-1.4375553 -2.1873982 -0.028087616
-1.9761477 -2.1791375 -0.50524521
-2.679141 -2.1803999 -0.73227692
-3.6103735 -2.1942184 -0.63391876
5.8476882 -4.3081241 36.998119
4.8404899 -4.3080688 36.612053
3.5453997 -4.3463306 37.060314
-0.38860631 -4.4539957 38.210999
-1.1915638 -4.4257412 37.207973
6.120532 -3.4642966 16.306707
5.9589558 -3.3915062 14.45112
5.5709238 -3.3471854 13.210634
5.4598465 -3.275552 11.402849
5.396224 -3.2024636 9.5773296
5.3208265 -3.1340368 7.8621864
5.2358818 -3.069726 6.2448387
5.7124996 -2.9538949 3.5723038
6.3783112 -2.8252587 0.65645981
5.9949555 -2.7994859 -0.1251297
5.3984003 -2.7941573 -0.48431778
4.6507826 -2.8024769 -0.56485367
3.5764923 -2.8389022 -0.077510834
-1.5551081 -2.9819016 1.4865303
-1.5978661 -2.9310617 0.21728134
-2.1090317 -2.9177356 -0.30638885
-2.8314543 -2.9206967 -0.50934982
-3.9288998 -2.9511592 -0.17780685
5.7521038 -3.5290754 0.33711243
5.1795053 -3.5190995 -0.078281403
4.3576956 -3.537226 -0.034816742
-2.0991173 -3.7140191 0.984478
-2.4653568 -3.6826875 0.22686386
-3.3537855 -3.7013361 0.25518036
1.2672243 5.8033924 64.438889
0.11250042 5.5502477 65.989693
2.3607521 4.7160511 62.748375
0.6840663 5.1823826 60.741501
-0.36961341 4.8207183 62.740822
-1.5534513 4.6025538 64.050003
3.8068621 6.1403213 49.24823
2.6750505 6.0702991 49.791687
3.8478935 3.13658 63.419029
1.8311906 4.0262289 59.599049
0.47599268 4.1064334 59.475426
-2.2108226 6.2292314 49.960709
-1.7371795 3.4857211 62.821751
4.8807645 5.0383272 48.427113
3.5784183 5.1695099 48.08379
2.4155922 5.1449766 48.412594
1.3885653 4.9402633 49.523926
0.11432087 5.0521193 49.262001
-1.2611239 5.3309126 48.270416
-2.4598162 5.3688674 48.325718
-3.5822666 5.2804713 48.933338
4.7943168 3.9056931 47.97958
3.2543838 4.3338251 46.440964
2.0038335 4.4397159 46.224037
1.0513009 4.150722 47.63739
-0.38563704 4.5310059 46.283737
-1.4941572 4.4514141 46.832184
-2.5495565 4.2697668 47.806465
-3.6695845 4.1758518 48.418251
-3.0527985 0.59321457 63.601818
7.4042563 1.0448881 54.075378
4.5855279 2.9230227 46.953335
2.8885162 3.5816052 44.589249
1.5932029 3.7758677 44.041435
0.43856794 3.7926576 44.190258
-0.70193124 3.79004 44.415493
-1.7103719 3.5699866 45.501816
-2.6671257 3.2240665 47.091248
-3.6704493 2.9091616 48.56308
-4.3063331 1.7649623 53.344681
11.842089 4.5936313 34.25156
11.677752 2.7919779 41.298977
10.665013 2.6725345 41.954681
9.9945574 2.2017429 43.914307
8.7512455 1.0241917 48.734169
7.8534932 0.66545731 50.300152
6.7891617 0.47015482 51.260994
4.3769984 1.9558395 45.928848
2.1541553 3.3561668 40.893509
0.91010737 3.5402625 40.410603
-0.16082144 3.4875565 40.817345
-1.1442446 3.2873063 41.782234
-1.9046726 2.674273 44.312744
-2.7644973 2.1497121 46.517403
-3.5861135 1.459175 49.361263
-4.4071488 0.63921219 52.709053
-5.790132 1.0141262 51.509155
-6.9593167 0.89699942 52.185268
12.420446 3.9260452 32.459141
11.276823 4.0122452 32.35289
11.620852 2.73084 37.066132
10.968742 2.3056426 38.774246
10.152339 2.0100791 40.029911
9.449645 1.57128 41.79826
8.7732182 1.0653354 43.812035
8.2163076 0.37701327 46.483353
4.6281867 3.2326174 36.510742
3.9295914 2.7616897 38.398117
3.1802471 2.3073602 40.233154
1.6669436 2.8657024 38.435978
0.50076836 2.9784832 38.234856
-0.4921757 2.8336751 38.961609
-1.3823237 2.4968381 40.385044
-2.3399479 2.2322826 41.551655
-2.7523947 0.86853343 46.714252
-3.6540763 0.30214506 48.995781
-4.6749988 -0.095385 50.670124
-6.1361489 0.5428403 48.565277
-7.8451457 2.0287206 43.346413
-9.803236 4.6954741 33.771297
-10.7722 4.5241275 34.592495
12.337376 2.930552 32.075348
11.241975 2.9764185 32.117439
11.618281 1.609916 36.932541
10.94282 1.1881744 38.567547
10.120345 0.88514715 39.805752
9.4087973 0.43626553 41.544586
6.7355609 2.1679811 35.855816
4.822176 3.1598661 32.669334
3.8402553 3.0915074 33.098488
2.9615159 2.8815942 34.014351
2.3271668 2.3133414 36.16547
1.3857809 2.1265945 37.010288
0.27450597 2.1789336 37.032223
-1.0037707 2.5114121 36.08395
-2.4363942 3.1592009 34.037327
-3.4837277 3.1785581 34.165157
-4.3775434 2.8900678 35.364807
-3.7214174 -0.85590619 48.635006
-4.7176833 -1.3302921 50.518597
-6.3906469 -0.10708801 46.459808
-8.1508455 1.6565722 40.485046
-9.9537783 4.0232697 32.362175
-10.958035 4.026793 32.538513
-11.860954 3.5728614 34.331409
12.212001 1.9762195 31.564556
5.2317176 2.8226874 29.971508
4.1637053 2.8919578 29.934607
3.2050111 2.8267345 30.338913
2.4315073 2.503427 31.594498
1.7900784 1.9564277 33.593273
1.2771722 1.1530013 36.448292
-0.58065665 2.4085927 32.486813
-1.9297774 2.9574051 30.856312
-2.9544241 2.9900639 30.936954
-3.9236629 2.9191308 31.36285
-4.7061696 2.4427152 33.145821
-5.4263034 1.7412069 35.689896
-5.931982 -2.688607 50.994576
-8.1870623 0.5154869 40.417747
-10.035421 3.1387212 31.758751
-11.029128 3.1137037 32.031601
-11.968789 2.8233435 33.205326
6.1987586 1.8255527 29.524818
4.7072206 2.4119756 27.869398
3.6276333 2.5253689 27.698149
2.7586887 2.3669865 28.38452
2.016484 2.0135438 29.691023
1.3930761 1.4453223 31.684254
1.0860773 0.31496978 35.473793
-1.2527153 2.4350111 28.914639
-2.3892329 2.6946142 28.271399
-3.3204558 2.6006591 28.756783
-4.1906648 2.368623 29.686554
-4.9881568 1.9397984 31.252327
-5.725533 1.2931924 33.52578
-11.086625 2.1490042 31.709003
-12.040556 1.917497 32.652779
5.6345201 1.4589962 27.358725
4.2712822 1.932119 26.111431
3.2363126 2.0130258 26.048992
2.373889 1.8613476 26.69334
1.6566758 1.4813653 28.036011
1.0713723 0.85659838 30.131886
-0.5103386 1.7871367 27.471844
