# .PCD v0.7 - Point Cloud Data file format
VERSION 0.7
FIELDS x y z
SIZE 4 4 4
TYPE F F F
COUNT 1 1 1
WIDTH 1571
HEIGHT 1
VIEWPOINT 0 0 0 1 0 0 0
POINTS 1571
DATA ascii
17.715872 89.203751 132.70169
17.601686 86.814964 128.73392
11.091413 77.178574 118.77748
-0.38165426 91.88121 161.57359
3.0360551 93.281464 160.49678
5.5225587 93.795685 158.8699
7.8644567 94.177704 157.16667
9.2951336 93.648293 154.85095
10.734364 93.114815 152.51987
12.12516 92.518127 150.13156
13.191261 91.566391 147.4744
14.270237 90.604401 144.7872
15.361652 89.631279 142.06895
15.85918 87.986687 138.82208
15.509829 85.365364 134.78922
15.149588 82.662529 130.63097
9.4922295 73.889908 121.62265
-2.0081763 94.442879 173.4221
1.8559766 96.286743 172.57397
4.1851678 96.695938 170.91411
4.3864942 95.044876 168.01213
1.803576 90.616791 163.35199
4.3792119 91.219589 161.76236
6.2172685 91.09388 159.71869
7.6421552 90.544197 157.39467
9.8594074 90.79834 155.59312
11.306141 90.254448 153.25674
12.762848 89.707672 150.90567
14.155714 89.078911 148.48434
13.818918 86.560303 144.70143
13.440353 83.931297 140.77969
13.050732 81.221695 136.73721
12.646904 78.424797 132.56612
-0.69187689 96.025818 180.42087
3.9700055 98.664017 179.98172
6.434443 99.252556 178.45932
5.7034135 96.754532 175.19196
7.5007501 96.680359 173.27589
8.9652195 96.274185 171.1613
10.069935 95.497543 168.81348
10.680498 94.200928 166.1275
10.586977 92.150154 162.93854
11.522028 91.119713 160.35414
9.6640301 87.124802 155.81781
10.755711 86.174194 153.20456
11.799427 85.148209 150.51863
11.392937 82.512505 146.70636
10.973936 79.795738 142.77686
10.541851 76.994133 138.72462
10.09272 74.099838 134.54111
3.8018117 97.114441 183.20782
6.7128453 98.146614 181.91362
8.9759159 98.567841 180.31039
10.722692 98.487762 178.43817
10.597876 96.533142 175.50117
11.559696 95.633324 173.12982
12.102604 94.283615 170.47266
12.639881 92.89624 167.76213
13.513254 91.828125 165.21561
14.370264 90.71685 162.61783
14.991377 89.325081 159.81657
9.3672028 81.108734 152.57022
8.9194756 78.385117 148.75153
9.5210476 76.762177 145.6077
8.0026932 72.703842 140.76886
7.6117206 69.829422 136.65717
1.9801698 93.979034 185.61688
6.1177106 96.205635 184.8931
8.8845272 97.129311 183.54243
10.844128 97.268387 181.79607
12.690945 97.296852 179.99289
12.546637 95.294113 177.06665
13.331402 94.20401 174.61057
14.075014 93.045364 172.09055
14.23196 91.239212 169.16447
14.966417 90.007332 166.54132
15.612574 88.649918 163.81403
5.6206346 75.601913 153.80109
8.1202183 76.087456 152.04594
10.606585 76.570427 150.30005
13.079887 77.050858 148.56332
11.306101 72.648857 143.58809
4.569365 93.329765 187.41141
7.8271737 94.74102 186.27153
10.382357 95.477066 184.82097
12.442936 95.726669 183.13498
14.076952 95.543129 181.22552
15.555704 95.193817 179.22253
14.400677 92.063728 175.68008
15.132996 90.87001 173.15631
15.471155 89.222916 170.34627
17.167513 89.017639 168.34186
3.8946385 69.960548 153.01489
10.192207 74.714294 153.85149
12.659775 75.198273 152.11026
15.114391 75.67971 150.37814
15.001402 73.153503 146.69992
13.123974 68.457657 141.53011
3.9478917 89.518471 187.67674
9.2653427 93.026413 187.51292
11.530205 93.483444 185.91951
13.650368 93.800827 184.26564
15.191029 93.517731 182.30907
16.619825 93.109383 180.28033
15.397041 89.845146 176.70752
15.402533 87.837456 173.75244
13.0863 83.229263 169.29863
12.242584 73.356606 155.63806
14.690935 73.840805 153.90106
17.127176 74.323219 152.17354
18.590176 73.650055 149.72157
16.825621 69.033165 144.70329
2.7660298 85.070053 187.69012
8.4744225 89.023468 187.66798
12.379566 91.181854 186.86728
14.327541 91.321014 185.11948
16.003885 91.173004 183.23022
22.28286 95.999786 183.89371
25.274672 97.343292 182.83427
23.237869 93.149673 178.83932
11.802126 69.10498 155.69118
16.701086 72.498535 155.67322
19.11858 72.981133 153.94986
21.524181 73.461952 152.23584
20.413435 69.590981 147.7789
7.3665338 84.614265 187.68228
12.718687 88.328964 187.56136
14.553144 88.339813 185.74219
16.375168 88.337395 183.91676
22.996593 93.626526 184.7438
26.78462 95.880478 184.12991
28.817015 96.206413 182.55652
23.946554 88.650864 176.7868
19.020638 76.326187 164.35641
20.108004 75.286659 161.80511
21.208387 74.235947 159.22507
22.320818 73.172432 156.61493
23.47678 72.134926 153.99789
23.898382 70.139267 150.76588
22.275089 65.463394 145.80434
11.645901 83.915108 187.55922
13.789188 84.238495 185.86185
15.769833 84.388824 184.0885
23.787935 91.32756 185.63843
26.77494 92.711029 184.55913
27.623507 91.666565 182.27032
25.951221 87.659088 178.41658
25.010036 84.414383 174.88354
24.163574 81.201073 171.29907
24.450884 79.277443 168.35922
24.744482 77.31179 165.35512
25.045109 75.303398 162.28505
25.351906 73.249458 159.14603
25.66563 71.149124 155.93607
27.279095 70.671158 153.66353
25.758335 66.073776 148.84482
-7.4577069 57.148888 175.53735
26.426945 89.104919 184.80322
27.015635 87.716064 182.33914
27.124027 85.722321 179.53859
26.964531 83.356422 176.50339
26.047527 80.007828 172.89874
26.299932 78.015778 169.95645
26.557455 75.978241 166.94763
26.821392 73.895073 163.87079
27.090822 71.76326 160.72273
27.407763 69.635437 157.53258
28.319592 68.233467 154.72766
28.889841 66.335831 151.595
-7.4453912 58.067013 182.38492
-7.6518521 55.501537 179.19888
24.370358 83.419998 184.09515
26.411324 83.696396 182.41968
26.428772 81.52964 179.53699
26.384106 79.232018 176.54335
26.416029 76.970772 173.52122
26.775818 75.063354 170.63913
27.14378 73.11628 167.69641
27.519049 71.126877 164.69043
27.902977 69.0952 161.61987
28.295288 67.019165 158.48228
28.696241 64.897263 155.27539
29.282364 62.968269 152.13843
23.455154 67.212227 168.81627
26.872643 69.11441 167.86226
27.24914 67.063438 164.82959
27.634398 64.96846 161.73116
28.027605 62.826546 158.564
28.42956 60.636848 155.3262
-7.4396405 52.92522 186.70584
-7.4541211 50.511658 183.65889
-8.3507519 48.07708 186.96512
-7.4447379 47.752708 191.03725
-7.4856715 43.874065 191.71495
-7.594007 42.388603 195.32664
-7.6819925 151.3391 80.525925
26.05101 95.049988 177.69144
-7.6513681 144.35159 88.948227
25.551785 91.450783 176.42047
-7.3311796 140.68803 90.088646
5.8039732 113.29584 140.05197
12.708877 95.070442 173.98296
10.198996 93.131126 178.81006
6.2433634 93.870621 178.81146
2.2245512 94.804832 178.44635
5.3097162 120.73169 118.28407
1.9895978 121.4001 118.22345
-7.5233278 133.21889 98.706009
-6.8242121 126.94272 110.70244
-3.1460533 114.37915 133.8624
3.494029 94.760605 169.69147
0.79747295 93.107513 173.93137
8.203742 117.19097 117.14219
3.9993246 119.33015 114.64478
0.60538912 120.18916 114.28145
-7.1950884 129.22296 100.00227
-7.1335001 123.9304 110.05838
-3.7182865 111.52236 132.40778
-3.653163 105.00819 144.789
-1.0202837 92.336311 167.93422
-3.088851 89.157928 174.76279
4.4439163 119.90288 106.78875
1.0154955 120.92401 106.17767
-1.3486986 120.08447 108.62344
-7.0265608 125.44012 100.80509
-3.079031 112.31533 123.70222
-7.0475302 114.29592 121.5116
-4.1647272 101.82346 143.59634
-1.2571144 88.165672 167.87332
-3.3409681 84.877655 174.76167
1.4060204 121.62829 98.431839
-1.2461934 121.42967 99.786179
-2.8046532 119.17493 104.45595
-4.4164782 116.84924 109.27426
-7.1091757 116.51604 110.88765
-2.5080166 100.83017 137.58388
-5.2020655 99.769966 140.51501
-7.6517553 98.052406 144.54562
13.91687 124.32459 82.896927
11.28006 124.28551 83.954727
9.158659 123.43873 86.247292
7.1816745 122.30563 88.991928
5.2664533 120.99583 92.025818
0.55536366 124.40796 87.759537
-1.5916195 123.49273 90.182709
-2.8282003 120.8316 95.351334
-3.3102989 116.52644 103.14378
-3.0629625 110.43465 113.82153
-1.470139 101.06378 129.79231
-7.0199976 106.30812 122.6011
-6.9355078 99.324661 134.91643
-7.6780281 93.644699 145.23721
14.41993 124.32259 76.953178
11.829487 124.28103 77.996185
10.521425 122.247 81.996628
6.8429747 123.87936 80.559052
4.2693272 123.79204 81.674736
1.6923676 123.70461 82.791855
-0.37871265 122.71949 85.268372
-2.4039202 121.58133 87.991783
-3.0588112 117.76841 94.817001
2.0113056 102.42904 119.38593
-0.47205067 101.29317 122.27716
-3.0544987 100.27473 125.00291
-5.6702662 99.243141 127.76385
-7.0728798 95.313362 135.07111
-6.8294382 87.031464 149.2713
17.481625 124.32012 70.240562
14.90535 124.32217 71.20311
12.379959 124.24809 72.274818
10.302475 123.47911 74.349213
10.563574 118.94969 81.881638
6.4234457 121.34604 79.397095
3.8907185 121.17949 80.627335
1.5296736 120.70216 82.316734
-0.51372147 119.61857 84.908356
1.6008976 110.68378 99.167137
2.785363 102.89523 111.84372
0.38117218 101.73418 114.70113
-2.0594831 100.55724 117.59895
-4.6003094 99.501366 120.3304
-6.4932947 96.882202 125.45247
-7.0902185 90.94902 135.67142
17.910223 124.31875 64.693954
15.377095 124.31876 65.643761
12.971276 124.12911 66.857788
10.861391 123.47518 68.724571
9.1591043 122.13997 71.559196
13.638317 110.6786 88.73288
6.3253098 118.26248 78.999969
3.9101915 117.86288 80.562859
5.2748899 110.67982 91.866798
2.4873295 110.67982 92.912025
-0.30054569 110.68044 93.95636
-2.7181931 109.94569 96.07148
-0.96781874 100.55685 110.85919
-3.5767994 99.768639 113.134
-5.943902 98.374123 116.31547
-6.5097036 92.657799 125.9306
-7.1112337 86.508659 136.27109
-6.7862015 77.40699 151.12088
-6.6844664 67.993408 166.56744
19.456236 122.72813 61.453438
16.082241 123.95711 60.744167
13.720652 123.75307 61.957466
11.769461 122.91257 64.039352
10.016359 121.71337 66.62323
8.7809525 119.60803 70.468735
11.69458 110.47701 84.045448
8.8422184 110.65804 84.82412
6.0882716 110.67661 85.826912
3.3451591 110.67661 86.855461
0.60173655 110.6772 87.883179
-1.5841112 109.58401 90.459007
-2.751668 106.33701 96.113167
-1.8847032 98.537216 108.31864
-4.3592758 97.456535 110.98264
-5.9539404 94.268394 116.70238
-6.5227404 88.345924 126.43024
-7.1323118 81.981377 136.88361
18.562004 121.03074 59.341061
15.93838 121.19386 60.068806
13.270951 121.43226 60.694866
11.203547 120.74998 62.54076
10.485738 117.86646 67.33506
12.502964 110.29956 78.453552
9.7961378 110.29957 79.468491
7.0896349 110.29898 80.484238
4.2851715 110.47583 81.258255
1.4863739 110.65403 82.02803
-0.50118351 109.27226 84.941719
-1.777503 106.36143 89.988297
-1.8749151 100.77413 98.79306
-2.5318394 95.961365 106.59213
-4.5776157 93.88726 110.61414
-5.9638462 90.087212 117.0974
-6.5377207 83.956528 126.93356
-7.1558714 77.370705 137.50058
-6.2476473 56.107773 170.52832
-6.1742563 44.89296 188.1004
16.43751 117.43694 60.633408
13.621478 117.86713 61.029701
12.580729 106.82093 78.356659
8.7842207 108.68057 76.928879
5.1897469 110.29648 75.799034
2.5244203 110.29707 76.797508
0.55218792 108.96951 79.57251
-0.58824253 105.89798 84.709579
-2.0246177 103.21036 89.369003
-3.6541157 100.73084 93.781738
-3.0002203 92.988998 105.40683
-4.6216621 89.867119 110.80146
-5.9739513 85.829216 117.49968
-6.5536394 79.485161 127.44414
8.8957844 105.09762 76.96199
5.1590872 106.97102 75.556152
2.5347195 106.86056 76.705696
0.56945229 105.45026 79.555641
-1.0686049 103.2754 83.428459
-3.0514107 101.66585 86.583519
-4.857234 99.546196 90.436523
-3.0311155 89.003342 105.54823
-4.6664639 85.779381 110.9919
-5.9842501 81.492264 117.90942
12.431994 100.24921 77.480057
8.5773392 102.24088 76.008789
4.8175402 104.18353 74.573715
1.4227476 105.54867 73.847519
-0.39661694 103.84894 77.018784
-2.2561111 102.11077 80.261391
-4.1849318 100.39267 83.500603
-2.4273629 90.29303 97.631493
-3.0622206 84.950592 105.69299
-4.7123489 81.623085 111.18453
-5.9946966 77.074142 118.32683
13.558261 99.652298 72.652061
9.7320023 101.62949 71.256401
5.9992266 103.55794 69.895477
2.3561969 105.44 68.567291
0.22593927 104.45084 70.782021
-1.592135 102.75251 73.894875
-3.4500628 101.01609 77.077202
-5.3494396 99.240913 80.330544
-2.4263105 86.281677 97.785583
-3.0941648 80.830612 105.83916
-4.47297 76.685196 112.29031
14.659774 99.068535 67.930099
10.861602 101.03137 66.607155
7.1552582 102.94635 65.316788
3.5370693 104.81575 64.057121
0.82548857 105.03139 64.772064
-0.95235538 103.36999 67.763885
-2.7687244 101.67261 70.820511
-4.6248522 99.938057 73.944077
-1.4703875 86.77037 91.190109
-2.4206371 82.190811 97.955742
11.966969 100.4461 62.057705
8.2867613 102.34772 60.835217
4.6931715 104.20459 59.641495
1.4038477 105.59055 58.978134
-0.33574104 103.96511 61.854858
-2.1123142 102.3051 64.792755
-3.9270601 100.60943 67.79377
-5.7812471 98.876923 70.859985
-1.9816194 83.966408 89.840645
-2.4158587 78.031189 98.125946
13.049211 99.872635 57.605572
8.1399813 104.02651 53.886894
5.6843557 103.86826 55.019447
2.7520628 104.61439 55.120338
0.32992554 104.39856 56.317398
-1.4794831 102.91488 58.981564
-3.2546282 101.25642 61.866795
-5.0673304 99.561996 64.814255
-0.44441748 83.114914 85.09317
-2.0656724 80.141479 89.680634
8.6498985 104.46183 48.551304
6.2065229 104.36069 49.599861
3.8200006 104.14547 50.776451
1.4265623 103.93023 51.95565
-0.88804817 103.54163 53.332237
-2.5372939 101.73643 56.313755
-4.3794146 100.22296 58.985703
0.39100552 83.787346 78.712265
-1.312501 81.169441 82.778008
-2.9813828 78.265129 87.205704
9.9958382 103.36935 45.00946
6.9174061 104.46004 44.767044
4.4532223 104.4606 45.690289
2.0520859 104.33899 46.746346
-0.30782509 104.12724 47.902382
-1.8634133 102.2408 50.90136
-3.2885695 99.948456 54.371223
-5.4214668 99.059425 56.309433
-0.56425476 82.102966 76.201996
-2.1751809 79.236061 80.47728
-3.8900633 76.401749 84.749802
7.6623917 104.45831 40.174141
5.231926 104.45831 41.085453
2.8011713 104.45886 41.996208
0.37071323 104.45887 42.907513
-1.4835234 103.28275 45.076267
-2.8279481 100.95438 48.497433
-4.2336493 98.601044 51.972847
0.048902988 83.243996 69.606934
-1.5112743 80.433182 73.713425
-3.1221471 77.532333 77.951729
8.3877106 104.45609 35.704773
5.9894924 104.45662 36.60334
3.5915537 104.45663 37.502457
1.1933527 104.45717 38.401024
-0.90447712 103.85146 39.93013
-2.4308701 102.01637 42.752003
-3.781867 99.682129 46.120003
-5.1977644 97.332199 49.53157
-0.88225222 81.603172 67.194908
-2.4504137 78.778496 71.245529
-4.0690393 75.862991 75.426422
6.7273283 104.45444 32.240166
4.3607874 104.45499 33.126869
1.9945374 104.45499 34.014107
-0.34934711 104.41032 34.946541
-1.7350159 102.38945 37.890312
-3.3342962 100.69206 40.526134
-4.7253485 98.423843 43.768631
-0.27737284 82.726982 60.9305
-1.8052197 79.975487 64.804016
-3.3815107 77.138023 68.798828
7.4456472 104.45285 27.990219
5.1102304 104.45286 28.865898
2.7745581 104.45338 29.741058
0.43862629 104.45444 30.615692
-1.0079784 102.64416 33.283379
-2.5589685 100.93906 35.866703
-4.1606436 99.232941 38.470249
-5.6619005 97.186829 41.435284
-1.7974405 82.54731 57.173023
-2.7210374 78.362938 62.43177
-4.3046675 75.511589 66.373032
8.9231806 103.0512 25.166885
5.8401155 104.4513 24.714081
3.534503 104.45183 25.577988
1.2286196 104.45287 26.441399
-0.46128941 103.21268 28.500114
-1.8056622 101.17843 31.34169
-3.3761292 99.499588 33.859642
-4.9801302 97.784912 36.431366
-1.2682729 83.789162 51.121696
-2.7994218 81.230476 54.635918
-4.3887215 78.628487 58.22171
6.5514574 104.44979 20.667778
4.2751284 104.4503 21.520721
1.9985476 104.45134 22.373184
0.067452431 103.76332 23.871124
-1.1079721 101.48143 26.878487
-2.6143236 99.759171 29.380455
-4.1871214 98.072021 31.867867
-0.77356672 85.014252 45.275028
-2.2493911 82.48204 48.676582
-3.7906113 79.928886 52.126205
-4.5294142 75.177536 57.747437
7.2637587 104.41407 16.753654
4.9971762 104.44881 17.565269
2.7494211 104.44933 18.407509
0.57935429 104.29643 19.389549
-0.56946945 102.05852 22.284477
-1.8740206 100.01143 25.027672
-3.4167118 98.350952 27.434456
-4.336215 95.194412 31.254883
-1.7381816 83.726089 42.908474
-3.2199597 81.188934 46.257736
-4.7706213 78.64093 49.64476
5.9003229 104.07869 14.03067
3.4814138 104.44789 14.53965
1.2612658 104.44888 15.37104
-0.048340797 102.61778 17.836021
-1.2041206 100.35981 20.703499
-2.667964 98.622009 23.125725
-4.2128935 96.953613 25.503548
-1.0373344 84.447166 37.794823
-2.67167 82.402199 40.612106
-4.1801844 79.909653 43.864716
6.9924116 103.33568 10.890175
4.5648832 103.74962 11.363503
2.0025225 104.44746 11.587715
0.45672131 103.15906 13.527199
-0.67384148 100.94505 16.287941
-1.9399662 98.885574 18.936409
-3.4558401 97.24321 21.238274
-0.3114357 85.037804 32.941734
-1.9114313 83.031158 35.659622
-3.5487995 80.978638 38.439949
-5.1334686 78.652084 41.489746
14.262422 103.24838 4.8079605
5.7264795 102.88456 8.3845901
3.2560549 103.42766 8.7495956
0.94599247 103.68414 9.3507156
-0.16012669 101.51201 12.010338
-1.2971258 99.278175 14.7453
-2.7197113 97.524826 17.090782
0.39249516 85.609711 28.237984
-1.1747561 83.640625 30.860672
-2.7780619 81.627243 33.542648
-4.4181013 79.566734 36.287109
19.784603 102.23634 0.39563751
17.312901 102.73216 0.82064819
14.958032 103.05421 1.3777084
13.035909 102.64559 2.51194
11.140052 102.17076 3.7033463
9.2335711 101.69157 4.9031677
6.7140951 102.32536 5.2064362
4.4835024 102.44223 5.9245377
1.9735823 103.11163 6.1882019
0.35652065 102.0239 7.8953476
-0.77458954 99.870148 10.49913
-2.0033875 97.798248 13.056717
1.1764898 85.942345 23.862938
-0.46057987 84.231491 26.208214
-2.0311251 82.255821 28.796547
-3.6370649 80.234619 31.444214
20.975662 101.16041 -2.2922287
18.229889 102.11995 -2.2136688
15.857125 102.49885 -1.6995087
13.755351 102.4313 -0.84447479
11.845351 102.02431 0.27505493
9.9443254 101.58131 1.4268951
8.0497847 101.10423 2.6100922
5.4727945 101.89133 2.7962799
3.263402 102.00745 3.5096359
1.3015528 101.63715 4.612236
-0.17032146 100.24391 6.5449295
-1.3869362 98.233955 8.9931412
-0.98357868 92.596687 14.428894
0.23184299 84.805191 21.695168
-1.3068819 82.865295 24.194725
-2.8255348 80.752502 26.858101
-4.2968826 78.382607 29.758545
24.629108 96.15451 -2.055687
21.205547 98.143486 -2.7025375
18.374653 99.23526 -2.7007828
15.581683 100.31242 -2.699028
12.827262 101.37277 -2.6954498
10.673497 101.41279 -1.9267197
8.768157 101.00087 -0.81247711
6.8854074 100.52592 0.3544693
4.7731237 100.46748 1.2032089
2.4493723 100.82298 1.7294617
0.31999683 100.80407 2.5462418
-1.3262072 99.777916 4.1595078
-1.9854279 96.578224 7.5123596
0.90403175 85.361298 17.316307
-0.60432434 83.456505 19.730705
-2.0326595 81.244156 22.413628
-3.4722319 78.915176 25.213951
24.890541 93.04126 -2.4715424
21.783203 94.513649 -2.7061234
18.918228 95.642181 -2.7046967
16.092957 96.753883 -2.7021561
13.306169 97.84964 -2.6988831
10.557088 98.929771 -2.6949081
7.8443632 99.995636 -2.6909866
5.5959272 100.2308 -2.0714798
3.4471769 100.28331 -1.3157043
1.1355047 100.66557 -0.81232452
-0.87292194 100.44353 0.15183258
-2.5431881 99.492233 1.6824493
-2.1487341 93.982613 6.7721558
0.11122036 83.954529 15.457771
-1.2625217 81.722458 18.094749
-2.6715221 79.43309 20.799393
19.474007 91.971504 -2.7079239
16.615036 93.120041 -2.7053299
13.795426 94.251938 -2.7020035
11.014083 95.36808 -2.6983566
8.2696447 96.46981 -2.6951218
5.5608988 97.558411 -2.6930542
2.8864222 98.635635 -2.6932449
0.25756741 99.677475 -2.6775742
-1.9323759 99.855797 -2.0224838
-3.7156563 99.166924 -0.71242523
0.83160782 84.382889 11.347923
-0.51366997 82.186783 13.897141
-1.8932552 79.935715 16.510384
25.338642 82.980705 0.082557678
22.213055 84.427338 -0.064819336
20.235126 83.888954 1.1678238
18.245052 83.347252 2.4080582
8.703824 92.870163 -2.6993408
5.9642611 93.993774 -2.696846
3.2615156 95.101852 -2.6940231
0.59505939 96.194244 -2.6904678
-2.0367823 97.27327 -2.6877213
-4.2640524 97.525528 -2.082634
0.21426964 82.638885 9.8148575
-1.1369686 80.424911 12.340675
23.575577 83.175514 -2.7367935
20.923046 83.855499 -2.349678
18.956631 83.320251 -1.1341782
16.977921 82.782326 0.088294983
14.883096 82.43943 1.1800919
12.507878 82.627274 1.9028854
10.230304 82.629044 2.7553024
7.5616312 83.435509 3.0354843
5.2372561 83.558212 3.7974167
-1.7155466 93.740051 -2.6914062
-4.0180321 94.11615 -2.1640472
-0.40125656 80.900017 8.286293
-1.7581606 78.667656 10.789322
23.348492 80.730804 -3.7421951
20.365509 82.007431 -3.74086
17.697094 82.762863 -3.4013824
15.730277 82.227524 -2.1954422
13.452178 82.269135 -1.3776627
11.072658 82.514297 -0.69998932
8.7649355 82.625832 0.067710876
6.5125151 82.627579 0.91074371
4.4544611 82.211685 2.0463638
2.0842028 82.46228 2.7158203
0.34729385 81.287613 4.3950272
-1.7284346 80.83625 5.5683136
20.965584 78.040253 -3.7453384
17.990574 79.336281 -3.7408218
15.057292 80.614578 -3.736763
12.163152 81.878998 -3.7354736
9.6959486 82.345184 -3.2099991
7.3482084 82.588051 -2.5378952
5.2171812 82.382812 -1.5629196
3.1752748 81.971504 -0.44470215
1.119483 81.568222 0.67183685
-0.94538879 81.162521 1.7938461
-2.4144974 79.313515 3.9297256
22.234901 72.762093 -2.9698029
18.566849 75.322906 -3.7448959
15.596923 76.644089 -3.7407761
12.667686 77.949509 -3.7386551
9.7792349 79.237671 -3.7373581
6.9313631 80.507736 -3.7360764
4.2163172 81.558655 -3.6005707
1.8724146 81.842499 -2.9600601
-0.18198013 81.480606 -1.8858566
-2.2286911 81.079475 -0.78157806
-2.7108431 76.862236 2.9406662
16.14867 72.584564 -3.744873
13.183145 73.933098 -3.7423172
10.259387 75.263603 -3.7405777
7.3771315 76.575226 -3.7388687
4.5354719 77.868362 -3.7371826
1.7338305 79.142822 -3.7351303
-1.0293846 80.400734 -3.7338791
-3.3858709 80.759079 -3.1451035
4.9562712 73.892014 -3.7403793
2.1209974 75.208542 -3.7383041
-0.67420673 76.505966 -3.7358398
-3.2064276 77.239899 -3.377861
26.924128 92.796219 177.22018
22.826916 95.747635 178.18701
22.790081 92.543938 174.57407
21.478605 92.266235 177.9137
-7.5584393 153.4581 79.409088
-7.3837376 152.14168 82.195557
25.125456 86.470726 172.89339
21.991327 88.358292 174.75244
21.180132 87.448517 178.57022
12.345856 96.378113 175.19879
-7.9392452 151.60371 76.404739
-8.3425312 149.70082 81.66745
-8.3290997 148.50139 84.441284
-7.9568348 146.90247 87.419548
5.9322863 120.88257 119.98692
5.82376 119.50301 123.42903
5.713655 118.10351 126.92089
5.6019492 116.68362 130.46361
5.487885 115.24377 134.05777
5.3728609 113.78178 137.70554
5.2553978 112.29892 141.40704
27.292095 80.490044 170.95218
23.110121 83.658875 172.04227
21.355484 83.88121 175.08539
10.975307 94.859909 170.52051
9.3077736 95.073204 173.4079
5.8910694 97.508667 174.65695
5.7516565 95.793854 178.9447
-8.2763176 143.65904 87.20826
-8.3392105 142.46643 90.061768
-8.1335163 140.95947 93.088417
4.3857746 119.89505 115.81586
1.8288555 121.33286 117.72079
0.86838245 120.93368 120.58315
0.72566986 119.56789 123.99454
0.58023739 118.18335 127.45429
0.43339205 116.77804 130.96439
0.28441572 115.35232 134.52545
0.13257122 113.9066 138.13806
2.5155256 109.33676 143.74484
17.208406 87.619484 163.55151
11.61976 92.70739 163.26895
8.8451462 94.322861 165.20979
6.7696218 95.07428 167.70618
5.2694521 95.098267 170.69707
4.3813391 94.327904 174.26089
1.7546253 95.821541 176.17993
3.0788507 92.119415 181.95297
19.526203 121.96341 71.02298
16.015507 124.29553 72.934044
14.744427 124.29628 75.512978
13.474064 124.29626 78.092148
12.203686 124.29628 80.67131
10.933308 124.29628 83.250473
9.8099604 124.13652 85.888489
9.5113621 123.0716 88.87674
-8.1790714 137.25552 93.065979
-8.3257389 136.07751 95.998695
-8.1798201 134.5463 99.127495
-7.6987352 132.60446 102.49426
-7.6826172 131.1731 105.66327
0.41536283 120.24454 113.66743
-1.3652658 120.81528 116.00591
-2.3176432 120.40861 118.84911
-2.4870291 119.05522 122.22027
-2.6581612 117.68188 125.63959
-2.8317175 116.28897 129.10764
-3.0077634 114.87607 132.62543
-3.1863713 113.44275 136.19412
-2.9159522 111.42345 140.16188
-1.5982337 108.04828 145.03619
-0.77897167 105.2497 149.63275
7.9726667 92.220139 161.0094
5.7910357 93.120705 163.42426
3.3734417 94.345306 165.59337
1.8441458 94.421028 168.52884
0.9855051 93.606377 172.09431
-1.0413561 94.344315 174.55872
-0.65552139 91.829308 179.40094
17.345512 124.29282 61.206532
16.088213 124.29208 63.760769
14.830189 124.2921 66.314842
13.572199 124.29208 68.868896
12.315563 124.29062 71.423386
11.162632 124.17732 74.012115
10.27614 123.77309 76.696754
10.199447 122.47728 79.688965
9.4533148 121.9 82.467445
7.0155344 123.19174 84.589142
6.5501528 122.29726 87.491989
5.8069954 121.70227 90.303185
2.6373577 120.94608 98.393631
1.2548485 121.06479 100.94061
-7.9540033 130.34587 99.32077
-7.9452095 128.89903 102.47001
-7.935667 127.42838 105.66985
-7.9301872 125.93913 108.91866
-7.7019167 124.15672 112.35686
-3.3830652 117.36327 118.45923
-3.681613 116.12845 121.76833
-3.9833088 114.87717 125.11986
-4.2881956 113.60906 128.51471
-4.5970163 112.32463 131.95328
-4.9098263 111.02356 135.43637
-4.5790424 108.8763 139.46509
-3.9097557 106.25501 143.84421
-4.0783949 104.67962 147.63509
-1.7999649 99.861465 153.55612
3.2775049 91.248116 162.10202
0.91460228 92.43132 164.30927
-0.98244381 93.007217 166.90012
-2.0826445 92.508621 170.22522
-2.9770279 91.718071 173.77151
-2.5007067 89.012177 178.7276
14.341383 123.57317 59.988377
12.823704 123.85887 62.457664
11.667377 123.75934 65.018494
10.549688 123.61646 67.593719
9.5749397 123.31532 70.217758
8.8622971 122.72128 72.937073
8.5269365 121.70021 75.80513
10.268411 118.34429 79.458115
4.3894043 123.51374 80.320648
1.7513485 125.08626 82.308105
0.65244293 124.92439 84.88588
0.39440536 123.7923 87.834778
-0.30825233 123.15851 90.618958
-1.3405972 122.90025 93.268074
-1.8107862 121.97591 96.20269
-2.2988997 121.05835 99.159134
-7.7763338 126.09519 99.490417
-7.9379349 124.80209 102.58842
-7.6844559 122.98372 105.96887
-4.3099594 117.31163 111.2678
-4.8255272 116.3526 114.36884
-7.9074144 118.5741 115.86722
-7.8996258 116.95241 119.32516
-4.1942911 110.62148 125.36371
-4.5054321 109.31273 128.79883
-4.8206186 107.98695 132.27863
-4.9352474 106.37798 135.95789
-3.2315416 102.35905 141.10774
-5.219738 103.14883 143.45251
-5.7120266 101.95829 147.0022
-3.7009258 97.379768 152.72665
1.2768612 88.693558 161.22696
-0.5680666 89.192268 163.90434
-2.1698732 89.364151 166.78822
-3.1194849 88.629768 170.28926
-4.1334829 87.972351 173.75615
13.394049 120.67004 59.274426
10.988134 121.92395 61.53075
9.9480324 121.69376 64.124916
8.8973808 121.47191 66.722992
8.1136246 120.94902 69.410225
8.1101542 119.54138 72.367752
13.701078 110.27713 80.435181
3.2641954 120.7494 79.674164
0.5313015 122.45847 81.640305
-0.93043709 122.7103 84.080124
-2.1753254 122.71103 86.606033
-3.2814903 122.54738 89.194839
-3.6194048 121.46373 92.15226
-3.8993483 120.29327 95.173958
-4.282444 119.2294 98.181679
-4.4299049 117.86038 101.35061
-4.5051937 116.38034 104.6057
-7.451376 118.44388 106.26188
-7.9111319 117.42607 109.32868
-7.9065189 115.80487 112.71743
-4.8181314 110.22887 118.13487
0.24663734 102.02081 125.05669
-7.8806887 110.76111 123.23701
-7.6573868 108.74199 127.01583
-3.0272779 100.88184 134.09088
-4.1278315 100.50128 137.12294
-5.2309589 100.11752 140.16695
-6.4578228 99.894325 143.12561
-7.3556871 99.218208 146.36566
-4.1504498 92.880638 153.14215
0.92460728 83.830223 161.80869
-0.78272915 84.123299 164.66071
-2.7081795 84.730415 167.29727
-2.75175 82.661125 171.72308
-4.1257153 82.470856 174.91141
9.9844322 110.27586 78.826233
8.581666 110.38131 81.457939
7.0455532 110.6461 84.033546
-1.0735226 118.76269 83.870827
-2.7938309 119.31806 86.224449
-4.3608418 119.69653 88.629662
-4.401145 118.21783 91.744156
0.49144268 110.64774 97.336647
4.8652487 103.5994 102.9123
3.8283944 103.20026 105.83595
2.5158887 103.14199 108.62018
1.5427911 102.65154 111.60168
0.56443548 102.15968 114.59676
-7.4944534 110.80612 113.22514
-7.8878155 109.61266 116.47144
-7.8822289 107.87478 120.02435
-3.5985031 100.43848 126.57854
-4.6912165 100.05906 129.5752
-7.8536386 102.46325 131.06488
-7.8475456 100.60057 134.87271
-7.9915419 98.910744 138.63074
-8.4986362 97.693306 142.15714
-7.4229317 94.242851 147.04979
-3.2815371 86.407944 154.71048
6.3375311 110.27462 77.247467
4.9674711 110.35786 79.861977
3.4287376 110.64626 82.407288
2.1304865 110.64626 85.043053
0.83157396 110.64707 87.678528
-0.46733809 110.64789 90.313995
-1.7655792 110.64788 92.94976
-3.0644693 110.6487 95.585182
0.98438358 103.87153 100.96426
-0.047330856 103.47543 103.85371
-1.0047774 102.97711 106.7975
-1.1302085 101.3896 110.23769
-2.1298151 100.92062 113.20821
-3.1134834 100.42264 116.20455
-4.1593046 99.998962 119.17798
-5.244976 99.621544 122.13951
-7.4521818 100.75788 124.34047
-7.8524265 99.443199 127.79114
-7.825572 97.516052 131.60367
-8.0576134 95.914871 135.28775
-8.2910843 94.286865 139.02853
-8.530818 92.638145 142.82362
-6.636692 87.907471 148.47076
12.859406 99.642929 76.059875
2.7590933 110.27258 75.698296
1.4203701 110.33404 78.295578
-0.10906029 110.63193 80.815895
-1.4069719 110.64642 83.422516
-1.7086301 109.41147 86.459351
-2.2962751 108.51831 89.40583
-3.0491805 107.82134 92.302666
-3.5451851 106.78284 95.348412
-1.7995343 102.82288 99.578354
-2.0391912 101.39079 102.87634
-2.2631402 99.914047 106.23009
-2.9548302 99.033745 109.36255
-4.5886917 99.400742 111.95922
-5.7913151 99.191315 114.81197
-6.873827 98.81456 117.74936
-7.1606131 97.337234 121.23183
-7.3837671 95.745621 124.80947
-7.6162987 94.138847 128.43593
-7.8448524 92.497635 132.1219
-8.0809355 90.83744 135.86043
-8.3199053 89.151085 139.65617
-8.5632267 87.439964 143.50937
-5.8058414 81.302917 149.9592
-7.7927446 82.063179 152.50058
13.430605 99.340347 66.371918
11.082044 100.55741 68.802719
8.7600861 101.76068 71.205986
6.4649639 102.94955 73.582443
2.3918543 106.36482 75.292839
0.07100296 107.64087 77.554092
-0.5084939 106.74051 80.459763
-1.1588907 105.91587 83.363922
-2.0496082 105.386 86.189919
-2.5411429 104.33166 89.212708
-2.5417156 102.62036 92.500389
-2.6070514 100.96587 95.810486
-3.0156159 99.738419 98.997269
-3.2493935 98.256859 102.31722
-3.1472521 96.297699 105.8724
-4.7864151 96.670677 108.484
-5.9412975 96.38649 111.37447
-6.7273302 95.587547 114.50467
-6.9476919 93.98587 118.02806
-7.1713343 92.360458 121.60371
-7.4016924 90.715538 125.23044
-7.6321268 89.041069 128.91408
-7.8681049 87.34417 132.65205
-8.1069775 85.620346 136.4476
-8.3502331 83.871048 140.30099
-8.5965614 82.09359 144.21468
-7.7832718 78.693634 149.09309
-7.749999 71.811516 162.24258
13.992201 99.043365 56.83395
11.658583 100.25272 59.299881
9.3511896 101.44846 61.738106
7.0695744 102.63086 64.149094
4.8132935 103.80014 66.533295
2.5819492 104.95647 68.891174
0.79283714 105.57436 71.362732
0.045630455 104.88034 74.183533
-0.70594931 104.18082 77.023544
-1.4632645 103.47745 79.882439
-2.2729855 102.83078 82.741203
-3.1774836 102.29771 85.578979
-3.854496 101.45539 88.535873
-4.5375977 100.60719 91.516159
-5.1902018 99.703835 94.538162
-3.3472457 95.405609 98.87117
-3.2271633 93.387245 102.41908
-4.125247 92.736748 105.46443
-5.0585194 92.123871 108.51056
-5.9963055 91.506607 111.57409
-6.7328062 90.593849 114.78408
-6.9569168 88.933914 118.35744
-7.1850872 87.250031 121.98402
-7.4166975 85.540642 125.66552
-7.6525393 83.806206 129.40265
-7.8913021 82.044106 133.19769
-8.134469 80.255768 137.05095
-8.381424 78.439522 140.96434
-7.7510567 68.28614 158.75871
-6.9617748 64.623779 164.03639
-7.7201729 60.847733 172.66983
-7.2813435 57.569218 177.93793
8.510396 104.44476 49.232594
7.4625168 104.15035 51.901001
6.4806519 103.77048 54.59243
5.4231195 103.47838 57.276211
3.2051411 104.62782 59.667168
1.0113268 105.76475 62.032082
0.26379395 105.08905 64.791336
-0.48014164 104.39811 67.571289
-1.2283874 103.70174 70.369987
-1.9822822 103.00152 73.187195
-2.7412429 102.29663 76.023293
-3.5053034 101.58698 78.878502
-4.2738781 100.87167 81.753242
-5.1066093 100.23043 84.622147
-5.7917881 99.379288 87.577187
-6.4824734 98.521317 90.555939
-3.1477566 92.12204 95.544167
-3.3378515 90.494125 98.921364
-2.6707158 87.640831 102.80976
-4.1579514 87.773003 105.58636
-5.1023579 87.136032 108.67415
-6.0528049 86.496429 111.77905
-6.7384424 85.462326 115.07119
-6.9670839 83.7425 118.69552
-7.1985188 81.995499 122.37546
-7.4342041 80.222717 126.11141
-7.6735363 78.422523 129.90512
-7.9165945 76.594292 133.7579
-7.5885315 56.917458 169.24756
-7.6979542 54.480427 173.94769
-7.6810112 49.055824 183.88086
7.5408964 104.44364 42.773155
6.2628613 104.44366 45.367863
5.0537519 104.3586 47.975506
3.9754066 104.10965 50.612186
2.8872013 103.86924 53.253551
0.51264572 105.24939 55.594227
-0.25819397 104.61024 58.307827
-0.99884987 103.92235 61.047741
-1.7437706 103.22907 63.805981
-2.4942913 102.53203 66.582367
-3.2498035 101.83033 69.377258
-4.0097256 101.12309 72.191055
-4.7754173 100.41198 75.023514
-5.5462456 99.696075 77.875031
-6.3222694 98.975319 80.745804
-4.3228035 94.444138 84.829315
-2.7575397 90.435593 88.855125
-1.7370276 87.116936 92.747139
-2.721549 86.555962 95.754082
-3.3344674 85.459053 98.969688
-3.189971 83.261078 102.62627
-4.1915255 82.675751 105.71155
-5.1487617 82.015587 108.84135
-6.1094246 81.348579 111.99039
-6.7462978 80.190239 115.36504
-6.9782505 78.405838 119.04268
-7.2137556 76.593864 122.77707
-6.9676704 38.142513 191.37775
7.8546467 104.44336 33.85672
6.5879765 104.44335 36.428375
5.3213024 104.44336 39.000023
4.0546217 104.44336 41.571686
2.7879515 104.44336 44.143337
1.6642485 104.26323 46.741295
0.59164333 104.01546 49.354382
-0.48415661 103.76792 51.973537
-1.467721 103.39758 54.621258
-2.2522616 102.76273 57.329754
-2.9994378 102.06883 60.066162
-3.7509079 101.36949 62.820858
-4.5080109 100.66634 65.593681
-5.2701416 99.958511 68.384949
-6.0373974 99.245956 71.194908
-4.7898331 95.772995 74.765472
1.5121424 85.289223 80.39521
0.13342476 85.283371 83.204613
-2.2588587 86.695366 85.580078
-2.7471347 85.445129 88.768593
-2.935843 83.746964 92.136078
-3.128088 82.024277 95.553841
-3.3225527 80.274521 99.023689
-3.1638517 77.977791 102.73779
6.9073467 104.44307 27.646362
5.6524811 104.44227 30.195419
4.3969669 104.44227 32.744431
3.1414442 104.44226 35.293449
1.8859186 104.44227 37.842464
0.63040447 104.44227 40.391464
-0.60224342 104.41307 42.944218
-1.5249672 103.98475 45.553604
-2.0302496 103.00862 48.256874
-2.540904 102.02415 50.985355
-3.06528 101.04217 53.73745
-4.2459221 100.91563 56.351898
-4.9995785 100.2157 59.084785
-5.7582254 99.511154 61.835747
-6.5212803 98.801056 64.605186
-1.9744673 90.79837 69.126137
0.67237926 85.289467 73.219086
-0.0098562241 84.329559 76.253731
-0.62023687 83.252373 79.344032
-1.4050117 82.404106 82.394997
-2.7882533 82.397163 85.215248
-2.7315626 80.312851 88.681915
-3.3251228 79.138313 91.90535
-3.115376 76.763718 95.560104
19.070583 102.26376 -1.3784866
17.251883 102.91417 1.2211456
5.9772434 104.44199 21.544456
4.7326794 104.44199 24.07122
3.4881058 104.44201 26.597984
2.2435617 104.44199 29.124733
0.9989996 104.442 31.651497
-0.24556828 104.44201 34.178253
-1.2115412 104.08452 36.740051
-1.8842468 103.34229 39.352859
-2.5856209 102.62588 41.980492
-3.0953102 101.64648 44.660793
-3.6091223 100.6571 47.366257
-4.13976 99.674408 50.094654
-4.7648745 98.80304 52.827812
-6.1574039 98.958069 55.394516
-3.780942 93.963776 58.960831
1.2081447 85.286835 63.410252
0.22599983 84.763474 66.283569
-0.37261391 83.69397 69.295822
-0.97754669 82.615372 72.336182
-1.5875034 81.525604 75.40551
-2.2032566 80.425476 78.503998
-2.9549365 79.503387 81.579346
-3.6160231 78.432724 84.72036
-4.2456093 77.296799 87.907104
-4.8806524 76.148788 91.125214
15.258591 102.61147 -2.146019
13.813879 102.84796 0.39865875
12.624382 102.78403 2.9186249
6.7543716 103.88086 13.03463
5.0625687 104.44173 15.548164
3.8287888 104.44173 18.053032
2.5950012 104.44173 20.557922
1.3612099 104.44173 23.06282
0.12742329 104.44174 25.567703
-0.70517063 103.92813 28.101685
-1.2581615 103.04601 30.673286
-1.8965979 102.26139 33.258209
-2.6830015 101.65846 35.845127
-3.4732904 101.05124 38.446964
-4.1548271 100.28978 41.081352
-4.6730413 99.297195 43.763783
-5.209218 98.313042 46.468842
-5.7572279 97.329163 49.197468
1.7346435 85.284256 53.771019
0.45758867 85.187325 56.522968
-0.13431168 84.132011 59.458035
-0.7310462 83.065918 62.420609
-1.3340435 81.990829 65.41069
-1.9420271 80.904671 68.42907
-2.5564251 79.809242 71.475708
-3.175951 78.702415 74.551468
-3.8020859 77.586075 77.656288
-4.4998798 76.556358 80.764282
-5.1325979 75.411148 83.929871
12.324772 101.99418 -2.985199
11.114086 101.96182 -0.47525024
9.9556904 101.86552 2.0311737
8.8121567 101.74969 4.5387955
6.6975079 102.82779 7.1011353
5.1123581 103.26492 9.6175461
2.9404202 104.44147 12.138138
1.7172089 104.44148 14.621544
0.49400902 104.44148 17.104927
-0.20736694 103.77498 19.598991
-0.75391483 102.89918 22.114731
-1.3044205 102.01521 24.651627
-1.9088707 101.18816 27.206657
-2.6918964 100.58348 29.767212
-3.4800091 99.976158 32.342354
-4.2726498 99.365364 34.932243
-5.0692263 98.750229 37.537109
-5.7314196 97.942719 40.178009
-6.2730894 96.957176 42.860039
0.71227407 85.56385 46.970322
-0.47904205 85.365479 49.707485
-1.2515249 84.57608 52.543198
-1.8254757 83.492683 55.447876
-2.1751213 82.071129 58.440079
-2.292985 80.292114 61.535637
-2.9053507 79.200386 64.531685
-3.52281 78.097366 67.556198
-4.1461086 76.983902 70.609344
-4.7760315 75.860863 73.691315
8.4484863 101.07052 -1.3425522
7.3102474 100.954 1.1511765
5.061697 102.21999 3.7297592
3.4888706 102.65589 6.2389679
0.8543663 104.44122 8.7861481
0.28329659 103.62344 11.228806
-0.25693321 102.75385 13.690132
-0.80168533 101.87703 16.171989
-1.3509598 100.99284 18.674591
-1.9204102 100.12164 21.197777
-2.7013397 99.516907 23.732185
-3.4866829 98.908699 26.281013
-4.2765331 98.297043 28.844391
-5.0702858 97.68103 31.422523
-5.8692074 97.062317 34.015404
0.96247005 85.931839 37.611046
-0.35789204 85.931847 40.291687
-1.2349777 85.311874 43.045227
-1.7974277 84.238068 45.87212
-2.3651986 83.154076 48.7258
-2.9450679 82.069382 51.605152
-3.5458546 80.996689 54.508141
-4.1522532 79.914001 57.43819
-3.8655052 77.499573 60.644672
-4.4873438 76.390984 63.646706
-5.1143904 75.27092 66.677338
5.7265129 100.28632 -2.1937866
4.3567619 100.46713 0.30986023
1.7536793 102.21883 2.9086609
0.58104134 102.1641 5.3733215
-0.30614853 101.7402 7.8245468
-0.84908295 100.86238 10.272926
-1.3965588 99.977249 12.741714
-1.9486065 99.084702 15.231163
-2.7106934 98.457832 17.739647
-3.4933052 97.84877 20.262489
-4.2797546 97.235435 22.79969
-4.632267 96.021729 25.376495
1.4702253 85.932205 28.458504
0.16102028 85.932198 31.116524
-0.7477417 85.373924 33.817604
-1.4954281 84.580246 36.552624
-2.248354 83.781021 39.306808
-2.9026594 82.827774 42.096951
-3.4743309 81.739677 44.926102
-4.0600567 80.653763 47.78043
-4.6645794 79.577065 50.658802
-5.2740622 78.489365 53.564125
-4.8238163 75.804153 56.767582
2.4659119 100.23097 -2.9717865
0.75031471 100.87347 -0.45133972
-0.30885696 100.6741 1.9977341
-1.0167122 100.01272 4.4257965
-1.4418049 98.969116 6.8524475
-1.9920006 98.075653 9.3081436
-2.7200108 97.406204 11.7892
-3.4992771 96.795494 14.286324
-2.3691826 93.583687 16.804153
1.970149 85.931641 19.459183
0.67124081 85.932541 22.09494
-0.18441868 85.317474 24.753677
-0.92407513 84.530083 27.435089
-1.6688471 83.737213 30.135124
-2.4181576 82.937897 32.853996
-3.1733627 82.133934 35.591808
-3.9338551 81.324318 38.348827
-4.5776272 80.330902 41.144268
-5.1697798 79.244812 43.973747
-1.9471741 100.17413 -1.2874527
-2.7084866 99.584763 1.1208572
-3.2897987 98.746567 3.5279617
-2.5923214 96.178009 5.8715515
-0.093551636 91.132126 8.184227
2.4611292 85.931976 10.609169
1.1729794 85.932892 13.223099
0.36983585 85.26194 15.83577
-0.36194038 84.480713 18.464943
-1.0987492 83.694107 21.112213
-1.8406324 82.902069 23.777756
-2.587018 82.103622 26.461807
-3.3392382 81.300545 29.164467
-4.0967255 80.491882 31.886009
-4.8594999 79.677551 34.626595
-5.6269913 78.856537 37.38652
-4.3415775 99.111984 -2.1469879
-4.3478012 97.497009 0.17463684
-3.63241 94.875977 2.469574
3.1943817 83.839325 4.3889618
1.1530504 84.878838 7.0471573
0.3606205 84.196289 9.6318207
-0.35284996 83.392212 12.229958
-1.071331 82.582458 14.84639
-1.7942591 81.76606 17.481346
-2.5229769 80.944778 20.135017
-3.256876 80.117653 22.807571
-3.9960184 79.284615 25.499252
-4.7404814 78.44561 28.210236
-3.7330914 93.974976 -3.3662567
-4.6701927 93.583199 -0.91668701
2.5414009 81.878532 0.78517914
0.93429756 82.323265 3.4270096
-0.14269543 82.027878 6.0260086
-0.88232517 81.248573 8.6157837
-1.6034775 80.430382 11.222336
-2.3290977 79.605461 13.847336
-3.0605078 78.775597 16.49102
-0.39409018 72.947609 19.215134
0.63289642 81.679688 -2.6766968
-0.42642689 81.367622 -0.10054779
-1.488574 81.054688 2.4825287
-1.412981 79.100281 4.9936981
-2.1367884 78.27359 7.5903091
0.21603298 72.936722 10.089798
-2.3367472 81.222916 -3.5315628
-3.3936071 80.912132 -0.97221375
-3.3057299 78.92926 1.4886246
-2.5393314 75.918343 3.9402847
-2.7199659 77.040771 -4.7072983
-4.3906097 77.610046 -2.0550613
-8.1385727 152.06874 79.240761
-8.1237202 149.16942 82.616226
-8.117321 146.20615 86.060944
-7.4748335 143.33513 86.52845
-8.087327 143.17236 89.601471
-7.8587313 140.31792 89.775482
-8.0263319 140.06346 93.247437
-7.9544067 137.19061 93.314674
-7.9240961 136.87381 97.011436
-8.0098381 133.98569 96.966217
-7.7656097 133.59599 100.91093
-7.7120724 130.63353 100.98992
-7.7026958 130.2565 104.8258
-7.7072563 127.66145 101.02946
-7.6873436 126.84621 108.7949
17.096018 124.35883 71.289536
15.287585 124.35924 73.661446
13.477341 124.36005 76.03212
11.567351 124.38264 78.338181
10.5348 124.21259 81.222076
9.5538321 124.02836 84.165443
2.0008583 125.31017 82.573631
-7.7049408 124.6707 101.06721
-7.1132555 123.66252 109.34573
-7.6463423 123.34671 112.88268
14.567198 123.10689 59.601791
12.223373 123.23872 61.564133
11.118227 123.09474 64.235306
10.032072 122.94424 66.93676
9.140276 122.74712 69.777756
8.8034 122.41949 72.995041
9.1146584 121.93669 76.67514
6.7705927 122.06556 78.662949
3.7614365 122.35289 80.182388
0.85479927 122.62056 81.733521
-0.82188034 122.59869 84.121269
-2.186491 122.50127 86.738968
-3.3960319 122.36455 89.485756
-2.6352596 121.74284 93.751884
-2.2022619 121.1916 97.851738
-2.119329 120.71819 101.75233
-2.0537734 120.24099 105.70773
-7.6922112 121.2014 104.98045
-1.9209375 119.26112 113.83214
-7.6708584 120.2586 112.93738
-7.6634197 119.77544 117.01962
-1.5851884 117.68944 126.70222
13.437086 120.44616 58.83807
11.082987 120.58879 60.788097
10.073839 120.41469 63.508129
9.0849934 120.23303 66.262009
8.2812595 120.00396 69.152512
8.321064 119.56652 72.603775
9.0392056 118.95617 76.548798
6.11022 119.2355 78.159149
3.359374 119.47505 79.854103
0.8259182 119.66402 81.668655
-0.94398308 119.66315 84.000633
-2.6486912 119.64565 86.38015
-4.2487078 119.60095 88.839859
-3.7005386 118.999 92.940933
-3.6518908 118.51735 96.734711
-4.0513906 118.14553 100.2374
-4.5953827 117.80571 103.67373
-4.6556902 117.3303 107.56056
-7.6783028 117.64765 108.9894
-4.5393105 116.28957 115.74306
-7.6573296 116.62955 117.11595
-7.2370377 115.99292 121.66277
-4.0118732 114.55857 128.91411
-4.3270931 114.09927 133.00682
15.203047 117.08434 59.685703
12.474268 117.32311 61.457005
11.886726 117.03021 64.453094
11.76884 116.61441 67.765533
-1.4604092 114.8617 98.453674
-3.1402812 114.81859 100.98781
-3.5607734 114.42169 104.55416
-4.0263119 114.03061 108.13559
-4.5815525 113.65822 111.69286
-7.6649418 114.0068 113.09616
-3.4883208 112.25351 120.924
-7.6434488 112.90971 121.3991
-4.164856 111.32079 128.89572
-4.4811783 110.835 133.00035
-4.8033619 110.34193 137.16789
13.371769 110.71439 86.52021
11.501086 110.71413 88.979492
9.6294365 110.71413 91.438133
7.7587552 110.71385 93.897461
5.8870916 110.71385 96.356102
4.0163679 110.71358 98.81546
1.4550781 109.81283 108.68111
-1.6023073 110.15776 110.20788
-3.5130997 110.1646 112.66862
-7.2774696 110.73293 113.5117
-7.6521358 110.27563 117.30428
-1.9209561 107.92726 126.72478
-7.6301346 109.09591 125.78991
-4.6370277 107.55312 132.99295
-4.3992758 106.85497 137.71948
-3.3722401 105.89111 143.32681
-3.0254316 105.12865 148.37421
9.2778559 109.78596 76.467148
5.573947 110.32861 77.602341
3.3555784 110.44997 79.682137
0.69250107 110.70314 81.440048
-1.0961552 110.70314 83.789673
-1.6062651 110.32367 87.068344
-2.2472143 109.97697 90.293633
-2.8951221 109.6265 93.554062
-3.5616126 109.27567 96.841286
7.3819065 105.354 109.42439
6.6626101 104.9762 112.96641
5.9373436 104.59362 116.54909
5.2040339 104.20679 120.17153
1.3953471 104.79111 121.15794
3.5915136 103.45901 127.43024
-7.6381025 106.45023 121.6192
-0.28991699 103.42522 132.76128
-7.6128139 105.18306 130.29686
-1.9348364 102.64558 140.28152
-4.2978058 102.76242 142.5824
-6.4877958 102.82281 145.04413
21.648518 92.496376 179.0708
11.474766 95.219421 173.71616
10.179733 94.894913 177.64816
2.8291645 96.699951 174.8956
9.54916 106.63103 76.562477
2.4956703 108.20512 75.501328
0.28610039 108.33551 77.548462
-0.33642292 107.98265 80.681152
-0.965662 107.62599 83.847549
-1.6201291 107.27122 87.03479
-2.4715838 106.97222 90.114853
-3.0128384 106.57002 93.464447
-3.5614967 106.16328 96.853622
3.8442435 103.19017 106.63031
2.403976 103.03616 109.53267
1.6652117 102.64975 113.03818
0.9203012 102.25849 116.58353
0.16625071 101.86326 120.16699
-0.76474476 101.52038 123.63943
-1.7591691 101.19275 127.09511
-7.6228008 102.52689 126.04506
-3.7799139 100.53024 134.09602
-7.6024818 101.17098 134.91383
-5.8318586 99.853577 141.23071
-7.4379025 99.711823 144.27045
-2.6961575 97.287964 153.94328
3.5022316 94.288597 165.47821
1.5317497 94.22123 168.50868
1.4204273 93.464981 173.61627
-0.89011955 93.514992 176.32335
0.99812698 105.65042 74.445206
0.29740429 105.31024 77.499405
-0.40505028 104.96499 80.587646
-1.3994389 104.70815 83.504868
-2.4082298 104.45168 86.438698
-2.4670982 103.8793 90.106216
-1.7314453 103.0343 94.439919
-1.7885461 102.43924 98.247284
-1.7729135 101.80936 102.17755
-1.6053505 101.11686 106.30103
-1.7843447 100.5308 110.2121
-3.2286167 100.37151 113.10846
-3.9931297 99.972336 116.61647
-4.9795237 99.643974 119.97179
-5.9765034 99.313354 123.35522
-7.4501505 99.147423 126.33177
-7.519104 98.470314 130.66939
-7.7845068 97.852165 134.89526
-8.0542746 97.223854 139.19058
-8.3275547 96.584778 143.55806
-4.262291 94.303116 152.52914
1.3043652 91.407066 163.38155
-1.1204834 91.515884 165.88434
-2.497036 91.221169 169.54114
-3.2751884 90.686584 173.91641
0.80318642 105.49518 57.403568
0.3702507 105.08974 60.407616
-0.067827225 104.6795 63.447258
-0.51196289 104.26465 66.522644
-0.96059227 103.84454 69.635414
-1.4146347 103.41937 72.785767
-1.8741636 102.98903 75.974365
-2.3401937 102.55373 79.201347
-2.8526869 102.12679 82.439056
-3.5450363 101.75374 85.589371
-3.8865461 101.25419 89.038643
-4.2336655 100.74802 92.53508
-3.0560632 99.701859 97.272163
-2.966701 99.019913 101.25103
-2.8109016 98.302422 105.35617
-3.5179749 97.880829 108.81738
-5.4368305 97.889008 111.28892
-6.5006046 97.585953 114.50666
-6.7513447 96.978607 118.48421
-7.0051851 96.361229 122.52611
-7.2649488 95.734604 126.63132
-7.6023827 95.12558 130.73285
-7.790658 94.448135 135.04941
-8.0614281 93.789513 139.36127
-8.3357744 93.119568 143.74582
-3.9883137 90.622406 153.03476
0.3458252 88.08139 162.60457
-1.3536968 87.905319 165.89471
-2.9209747 87.672241 169.35358
-3.6281815 87.083153 173.82108
8.3303223 104.49369 36.394466
6.6611195 104.49448 38.582642
4.9919472 104.49526 40.770748
3.3228207 104.49605 42.958813
1.8300304 104.4406 45.239262
0.90268898 104.20253 47.828991
-0.031003952 103.96284 50.436432
-0.97109604 103.7215 53.061775
-1.5209217 103.34796 55.936089
-1.9640636 102.93314 58.908134
-2.4124451 102.51343 61.915146
-2.8661127 102.08876 64.957748
-3.3252058 101.65903 68.036568
-3.7897472 101.22415 71.152237
-4.2590914 100.78376 74.306
-4.7357826 100.33861 77.496841
-5.2174673 99.887741 80.727158
-5.727211 99.439186 83.981003
-6.0812092 98.927368 87.394722
-6.1924124 98.319313 91.043976
-3.0542955 96.520332 97.286041
-3.1303144 95.867676 101.146
-3.3242998 95.247116 104.97604
-4.6367264 95.032654 107.93567
-5.6301022 94.69426 111.19015
-6.503088 94.304016 114.58519
-6.7537842 93.668175 118.57779
-7.0094357 93.022491 122.63352
-7.2692146 92.366394 126.75471
-7.5294847 91.698151 130.94656
-7.7968531 91.02002 135.20464
-8.0686474 90.330681 139.53314
-8.3449879 89.629829 143.93396
-3.6904755 86.896431 153.56749
0.39553452 84.344116 162.90453
-1.3598652 84.180267 166.15442
-2.7408562 83.855186 169.84142
-3.9002056 83.429054 173.81943
5.9531498 104.49075 23.643951
4.3446522 104.49151 25.752701
