# .PCD v0.7 - Point Cloud Data file format
VERSION 0.7
FIELDS x y z
SIZE 4 4 4
TYPE F F F
COUNT 1 1 1
WIDTH 1556
HEIGHT 1
VIEWPOINT 0 0 0 1 0 0 0
POINTS 1556
DATA ascii
-5.6291885 10.482687 28.853828
-5.2199402 10.402735 27.869408
-4.8472958 10.267429 26.852993
-4.497036 10.096336 25.813301
-4.1451588 9.9244471 24.768791
-3.7916422 9.7517567 23.719416
-3.4366875 9.5779514 22.664978
-3.1609545 9.2785044 21.530087
-2.9905863 8.8089876 20.282495
-2.8182793 8.3332195 19.018963
-2.6435728 7.8517427 17.739597
-2.3317223 7.5807476 16.58602
-1.8782835 7.5338802 15.575418
-1.7690096 6.9220381 14.17853
-2.2627134 5.2990289 12.063896
-2.825325 3.5265379 9.8020802
-3.8692751 0.90234852 6.8818188
-13.733307 16.203007 59.142334
-13.213045 16.314342 58.295227
-12.694697 16.425056 57.450848
-11.382928 17.470119 56.750893
-10.555143 17.957451 55.985798
-10.034163 18.08601 55.169586
-9.8800869 17.775473 54.273399
-18.005428 7.4332595 51.340904
-18.354267 6.4232397 50.151703
-14.559739 8.7565851 46.831318
-13.49562 9.5094957 46.085316
-12.53926 10.136621 45.321793
-12.057181 10.162507 44.391685
-11.567765 10.198349 43.465385
-11.10378 10.201461 42.529228
-10.397292 10.524916 41.70253
-9.6845493 10.862077 40.888882
-9.0796223 11.060096 40.03273
-8.5027676 11.223442 39.168434
-8.828228 10.157206 37.826164
-8.1014404 10.522138 37.036171
-7.451416 10.786736 36.213535
-7.0914297 10.64944 35.224751
-6.7300954 10.511633 34.232273
-6.3545828 10.391602 33.244396
-6.0039968 10.233531 32.235668
-5.6661139 10.054153 31.212708
-5.2816038 9.9398365 30.2173
-4.8729391 9.8591366 29.236008
-4.4631805 9.7785721 28.25275
-4.0688748 9.6731977 27.254257
-3.7172327 9.5009289 26.216711
-3.3639612 9.3278646 25.174366
-3.0092554 9.1536703 24.126984
-2.6526899 8.9789944 23.074921
-2.2944584 8.8035021 22.017944
-1.9345589 8.627182 20.956022
-1.5729637 8.4500465 19.889133
-1.2322264 8.2353287 18.793982
-0.91382885 7.9794226 17.666811
-0.7087841 7.5296793 16.40563
-1.1075172 6.0557575 14.446241
-1.6775846 4.2596064 12.229362
-2.9746714 1.1769571 9.0716877
-12.297341 16.001854 58.655148
-11.782372 16.113098 57.814041
-11.269069 16.223988 56.97567
-9.6898861 17.625057 56.343967
-8.9421444 18.034538 55.578281
-8.3769255 18.226234 54.78299
-8.1802597 17.965115 53.903904
-14.669685 9.368371 51.282726
-14.129049 9.4664125 50.365253
-13.583138 9.5726681 49.452164
-12.604466 10.232615 48.677853
-12.00345 10.417495 47.797356
-11.529379 10.440811 46.877724
-11.056544 10.462888 45.958317
-10.524763 10.562967 45.062565
-10.086852 10.540034 44.131359
-9.6793079 10.476063 43.186398
-9.121891 10.613363 42.306992
-8.4878092 10.857349 41.467968
-8.0496864 10.836423 40.540024
-7.6113181 10.815486 39.611557
-7.3091888 10.603903 38.609383
-6.9400034 10.483109 37.63789
-6.5808525 10.345929 36.656658
-6.2203641 10.208239 35.671776
-5.8585229 10.07004 34.683216
-5.4900107 9.9390907 33.694427
-5.149436 9.7646036 32.682365
-4.8609276 9.5095196 31.627913
-4.481751 9.3857279 30.630627
-4.1011052 9.2618484 29.630199
-3.7075644 9.1553383 28.635502
-3.296401 9.0739889 27.651264
-2.9392586 8.9069118 26.619179
-2.5848017 8.7323551 25.5788
-2.2284985 8.557312 24.533783
-1.8705368 8.3814526 23.483894
-1.5569601 8.1301527 22.385498
-1.2420988 7.8758702 21.279016
-0.9251318 7.6198792 20.165117
-0.60602283 7.362174 19.043726
-0.28496552 7.1023846 17.914543
-0.055854797 6.6802802 16.673784
-0.83828068 4.5052962 14.265821
-10.981781 15.677999 58.157974
-10.369083 15.9143 57.338703
-9.4914675 16.481094 56.575508
-8.1747494 17.602539 55.91758
-7.4416885 18.009865 55.161282
-6.7729282 18.342289 54.400928
-6.5429459 18.121529 53.537285
-6.4775753 17.68618 52.622208
-11.846144 10.219484 50.103439
-11.272359 10.376605 49.220879
-10.700771 10.533366 48.342129
-10.134344 10.685841 47.466148
-9.6367683 10.748887 46.569252
-9.1606274 10.784129 45.665901
-8.7766323 10.694897 44.725941
-8.3393555 10.677085 43.806149
-7.9018664 10.659266 42.885918
-7.4678645 10.636292 41.963501
-7.0320768 10.615428 41.041256
-6.5960369 10.594554 40.118477
-6.7219071 9.7707005 38.893486
-6.0900221 10.024217 38.066196
-5.724576 9.8948975 37.091854
-5.3576365 9.7654438 36.114239
-4.992362 9.6311836 35.131363
-4.6286826 9.4920788 34.143024
-4.2993789 9.298584 33.126732
-4.0295172 9.0110435 32.062111
-3.6787605 8.8423386 31.046814
-3.2974663 8.7177792 30.048851
-2.9149055 8.5928087 29.047575
-2.5312729 8.4671087 28.042816
-2.1917353 8.2685843 26.996704
-1.9045153 7.9818254 25.898247
-1.615118 7.692894 24.791466
-1.3235168 7.4017673 23.676268
-1.0296917 7.1084175 22.552557
-0.73361301 6.8128138 21.420221
-0.4352541 6.5149384 20.279173
-0.16098309 6.1695533 19.101648
0.11534119 5.8203974 17.913183
-0.019031525 4.7451172 16.253624
-9.1121244 15.542438 56.843483
-7.9775677 16.453613 56.141365
-6.7018828 17.559509 55.494926
-5.9609709 17.993141 54.752758
-5.2325845 18.417334 54.01944
-4.957674 18.25423 53.174667
-4.8832474 17.82378 52.267082
-9.9667063 10.5205 49.752892
-9.3982334 10.683048 48.884415
-8.8368874 10.838623 48.018158
-8.2920542 10.97425 47.15036
-7.8720779 10.940388 46.238197
-7.5462174 10.775398 45.286667
-7.2452636 10.572763 44.319546
-6.9223328 10.397666 43.356201
-6.519628 10.333075 42.425095
-6.0829296 10.316154 41.508759
-5.6512513 10.291666 40.589306
-5.3824191 10.02883 39.581604
-5.3023953 9.4829788 38.45985
-4.8791108 9.4378252 37.521126
-4.5117288 9.3079376 36.546986
-4.1896119 9.1071033 35.540062
-3.8674059 8.9026833 34.526657
-3.6340137 8.5573826 33.445976
-3.4395571 8.1449032 32.326286
-3.1806622 7.8258848 31.240021
-2.8650885 7.5907068 30.186028
-2.5389967 7.3678055 29.132252
-2.1602964 7.2257037 28.113667
-1.8418951 6.9821868 27.039274
-1.5510654 6.6882639 25.932278
-1.2580156 6.3920927 24.816822
-0.9747448 6.0733795 23.681602
-0.70436192 5.7261448 22.522425
-0.43136501 5.3761511 21.353094
-0.15612221 5.0226793 20.173086
-8.2293768 15.237429 57.204121
-7.7291164 15.347916 56.378334
-6.483551 16.433905 55.715736
-5.229774 17.547916 55.084618
-4.5063448 17.975737 54.351063
-3.8248367 18.354345 53.61805
-3.638669 18.070917 52.753029
-3.5643673 17.630714 51.845718
-8.1175337 10.838072 49.417046
-7.5700884 10.984565 48.557335
-7.2161179 10.863758 47.631088
-6.8738413 10.724475 46.696835
-6.5688791 10.529904 45.743328
-6.2849193 10.301948 44.775093
-5.9572086 10.133143 43.819683
-5.5671873 10.052068 42.888519
-5.1932011 9.9460154 41.946991
-4.9238725 9.6830578 40.948315
-4.6526356 9.4182262 39.942543
-4.8643613 8.4202662 38.657467
-4.5008473 8.2794533 37.677467
-4.1786013 8.0726595 36.667866
-3.8872013 7.8141823 35.632076
-3.6187668 7.5149059 34.5728
-3.3958235 7.1380792 33.472622
-3.1919441 6.7236223 32.346478
-2.9272099 6.3991199 31.251368
-2.5628023 6.2303534 30.221518
-2.1819181 6.0852995 29.198967
-7.4387674 14.824257 57.546707
-6.8576994 15.045583 56.73885
-6.3624105 15.15598 55.918777
-5.0625949 16.35022 55.286324
-3.7828703 17.53653 54.681335
-3.0835304 17.948843 53.954254
-2.5268307 18.171362 53.19788
-2.3458719 17.875454 52.333324
-2.2181549 17.5 51.443214
-6.6713247 10.645541 48.967773
-6.3555079 10.470306 48.032169
-6.0003777 10.348568 47.106628
-5.6697612 10.189194 46.167625
-5.3432379 10.021051 45.222202
-5.0433731 9.810627 44.259861
-4.885839 9.3846521 43.224331
-4.6666651 9.0436001 42.206337
-4.3341885 8.8680515 41.236382
-4.0001574 8.6916761 40.261883
-4.3217144 7.5004988 38.913376
-4.0471158 7.2155952 37.877197
-3.6505051 7.1171403 36.906563
-3.2569675 7.01195 35.930847
-2.8625555 6.9061518 34.952339
-11.830357 10.954926 62.718994
-11.686863 10.581262 61.813915
-11.662783 10.046631 60.886894
-11.329481 9.9087868 59.983795
-11.308052 9.3570633 59.034081
-11.77259 7.5469036 57.003998
-5.9940829 14.745625 57.096191
-5.5023193 14.856018 56.279114
-5.0121231 14.966055 55.46463
-4.5236568 15.075493 54.652679
-2.3607111 17.525089 54.284859
-1.7933397 17.768757 53.53318
-1.2982664 17.91386 52.766399
-1.2394409 17.436747 51.863304
-1.6497297 16.274014 50.786488
-5.340169 10.313442 48.488682
-5.064229 10.07687 47.539886
-4.9042988 9.6642189 46.537403
-4.7281961 9.2684536 45.529823
-4.5502129 8.8684654 44.51149
-4.4118099 8.4010305 43.46273
-4.2282143 7.9945264 42.422302
-3.8931904 7.8152857 41.447716
-3.8254099 7.2146654 40.323578
-3.5075607 6.997683 39.321869
-3.6772833 5.9994974 38.02692
-3.6265631 5.3370223 36.835823
-10.78561 12.991638 66.577881
-10.062641 13.381788 65.736473
-10.038369 12.878678 64.87944
-9.6365681 12.857456 64.02961
-9.6113882 12.343813 63.153824
-9.6612539 11.723433 62.259029
-9.8051834 10.968593 61.339321
-9.8607655 10.320061 60.410938
-9.9056664 9.6756821 59.467529
-11.472004 6.9539967 58.27784
-10.026847 8.3129206 57.525608
-9.4258089 8.5284481 56.651382
-4.6496792 14.558657 56.63633
-4.162951 14.668688 55.82481
-3.6777487 14.778377 55.015839
-2.1144562 16.428108 54.490658
-1.1973476 17.17592 53.829338
-0.71118641 17.311123 53.059383
-0.75648785 16.670856 52.12339
-1.2530584 15.35336 51.016277
-4.5711975 9.8114319 48.855209
-4.4633751 9.318243 47.844471
-4.357317 8.8136168 46.818954
-4.2276759 8.3360043 45.788933
-4.0576334 7.9120913 44.763103
-3.9036708 7.4554033 43.7173
-3.7661142 6.9645252 42.649906
-3.8773813 6.0699015 41.439468
-4.0807371 5.0110817 40.152367
-4.2592058 3.9724202 38.847103
-10.093682 12.439291 66.896194
-9.0298595 13.282092 66.058868
-8.5003033 13.436126 65.225449
-8.3578663 13.080225 64.3778
-8.3878002 12.488935 63.510735
-8.4165764 11.889959 62.629265
-8.4314861 11.300341 61.734325
-8.4863148 10.646864 60.820221
-8.6673908 9.8091831 59.873383
-9.4902563 8.0675888 58.811146
-9.087039 8.0125513 57.906155
-8.4840298 8.2383404 57.036194
-3.8042111 14.264122 56.990501
-3.3210897 14.373884 56.181877
-2.8392992 14.483562 55.375832
-1.7375383 15.498954 54.732307
-1.0037889 15.990585 54.014076
-0.45410442 16.217726 53.254501
-0.49860859 15.559952 52.312695
-0.96929455 14.24752 51.208874
-4.1458364 8.7924919 49.098167
-3.9915113 8.3562279 48.100277
-3.8202686 7.9383278 47.096855
-3.6822357 7.4608908 46.067436
-3.534646 6.9897776 45.028534
-3.6236057 6.133162 43.864967
-3.8658347 5.0141201 42.600788
-4.0639353 3.9455891 41.326275
-4.2432694 2.8874612 40.029984
-4.413033 1.8248129 38.707172
-9.402895 11.887848 67.213989
-8.357728 12.723545 66.37352
-7.85112 12.85034 65.539413
-7.5719156 12.671949 64.699013
-7.5561132 12.132192 63.839252
-7.5904179 11.515149 62.962708
-7.5060825 11.052353 62.081825
-7.5191331 10.446354 61.179062
-8.079134 9.0618629 60.192986
-8.4303017 7.9506531 59.201981
-8.1624851 7.7053909 58.28215
-7.5491638 7.9537082 57.41774
-6.810329 8.3884859 56.584427
-2.4862776 14.081862 56.535927
-2.0078564 14.191528 55.732777
-1.5311022 14.300594 54.932098
-0.92534351 14.605405 54.169662
-0.14028645 15.18734 53.468163
-0.11053562 14.624494 52.544678
0.4999876 14.947672 51.800732
-3.6631393 7.8456903 49.362522
-3.5737677 7.2947607 48.336266
-3.3990746 6.86901 47.328739
-3.371109 6.2006979 46.24715
-3.6319294 5.0536709 45.017799
-3.8786926 3.9080157 43.762012
-4.0497198 2.8652425 42.51022
-8.7130337 11.337584 67.53125
-7.6876402 12.164081 66.687775
-7.2012458 12.266179 65.853256
-6.9195037 12.087729 65.013878
-6.8029361 11.676917 64.161705
-6.7496443 11.170891 63.295334
-6.6505213 10.721415 62.420647
-6.6120815 10.178232 61.528767
-7.8131318 7.8471789 60.474617
-7.8989997 7.0913682 59.516525
-7.7156382 6.7158074 58.581566
-7.2929678 6.6860638 57.678871
-5.8986564 8.0976448 56.963028
-5.2241693 8.4560795 56.130692
-1.9475298 12.748684 55.909855
-1.0310297 13.522318 55.20826
-0.17633343 14.2146 54.51025
0.55700207 14.731079 53.795235
0.67170238 14.289578 52.900871
0.66765499 13.652788 51.954994
-3.1767416 6.8909626 49.628929
-3.1073036 6.2926211 48.591465
-3.3362703 5.1993647 47.418316
-3.5744057 4.070652 46.210655
-3.8488588 2.8606343 44.954914
-8.097578 10.68752 67.849335
-7.114109 11.472664 67.001892
-6.5657296 11.662727 66.166748
-6.276967 11.490433 65.3283
-6.0513692 11.22576 64.482872
-5.9584346 10.767052 63.622772
-5.8645258 10.302258 62.751789
-5.9266353 9.602993 61.854351
-7.4567833 6.7401714 60.770546
-7.4782763 6.0593901 59.817703
-7.4493389 5.4422789 58.855682
-7.0697541 5.341795 57.937946
-4.7424998 8.1927042 57.385998
-2.4439259 11.049164 56.900398
-1.5049677 11.858032 56.17804
-0.56239986 12.686775 55.477448
0.21950054 13.277988 54.755371
0.6616993 13.341629 53.950752
0.69240189 12.748589 53.02037
-2.7350531 6.5658011 50.929058
-2.7621994 5.8051271 49.87075
-3.3013258 4.1889362 48.599655
-3.5164328 3.0798383 47.412964
-7.7067046 9.7207394 68.173309
-6.6802783 10.580046 67.317986
-5.9580879 11.019478 66.480042
-5.6677318 10.845546 65.641869
-5.4238663 10.601437 64.797745
-5.416666 10.007696 63.934235
-5.3268919 9.5257092 63.062866
-5.3608885 8.8519077 62.168533
-6.8861294 5.9339728 61.093281
-6.9908376 5.1114874 60.129932
-6.1586642 5.0238528 58.315125
-3.1041346 9.0669546 57.894226
-1.9127483 10.26893 57.193924
-0.95195866 11.128582 56.472355
-0.10556889 11.821602 55.744812
0.54923916 12.219568 54.984375
0.62702274 11.690037 54.069366
0.60063648 10.980469 53.108448
-2.2302113 5.6303983 51.2066
-2.9245205 3.7384524 49.911247
-3.4581985 2.0808048 48.624752
-7.5858169 8.3526306 68.508881
-6.200017 9.7424345 67.635941
-5.3497801 10.375492 66.793686
-5.0802078 10.167069 65.955376
-4.8297858 9.926899 65.111603
-4.7740493 9.3923779 64.252098
-4.7614965 8.7839518 63.377071
-2.7577381 7.961587 58.16069
-1.4251318 9.4114428 57.479599
-0.4446373 10.319751 56.757217
0.18619633 10.675775 55.973595
0.5757246 10.642224 55.135902
0.59130573 9.9885578 54.191563
-1.6526127 5.5446725 52.542294
-2.0354471 4.1583114 51.38377
-5.9055014 8.6214561 67.9599
-5.4417634 8.6893883 67.111023
-4.9790616 8.7569017 66.263672
-4.3057904 9.1435881 65.423973
-5.5183721 6.6643567 64.50563
-2.7269182 6.3238969 58.374115
-1.4400578 7.7221355 57.667831
-0.22034931 9.035181 56.981731
0.44615459 9.4522896 56.197243
0.5413847 8.91817 55.275688
-1.0777903 5.4692121 53.860703
-1.1697741 4.5671177 52.817535
-1.4266596 6.0318294 57.867054
-0.31013393 7.1906738 57.142685
-0.16616535 6.7169271 56.219826
-25.727858 20.5839 2.108696
-24.211872 20.710932 1.7407303
-27.027971 19.105782 2.643898
-25.068184 19.329834 2.7121429
-23.863022 19.405201 2.0179939
-26.725245 17.767834 2.8705101
-24.823689 17.996735 2.8781471
-23.731232 18.053223 2.0613632
-26.456205 16.421696 3.062233
-24.570501 16.663496 3.0531616
-23.595036 16.696545 2.1090851
-33.904129 19.961946 60.106407
-32.094349 20.166208 59.681255
-31.853418 20.093307 58.66803
-24.896975 21.226048 60.355881
-24.120232 21.256435 59.625961
-25.510521 15.240337 3.9543152
-22.574259 15.760794 5.071373
-23.459232 15.334112 2.1559448
-29.465481 19.468105 59.692268
-29.095789 19.416924 58.746918
-25.916033 19.90572 58.960396
-23.305782 20.291019 58.992371
-22.00918 15.162506 11.223663
-20.829304 15.262691 10.573639
-21.517059 14.8762 8.0055351
-22.195129 14.484877 5.3813324
-23.494511 13.92034 2.0174065
-27.010372 18.779137 59.67112
-25.910751 18.875614 59.043716
-24.910046 18.953129 58.385677
-23.105062 19.198097 58.089359
-19.606281 15.293512 20.423922
-18.293119 15.443832 19.97205
-18.005943 15.322556 18.567663
-18.852985 14.892948 16.041855
-19.730278 14.447092 13.418175
-20.535389 14.012695 10.796715
-21.218409 13.603933 8.2320023
-21.853222 13.200844 5.6519814
-23.537849 12.492925 1.8693199
-24.741348 18.09115 59.608055
-23.245363 18.282013 59.171547
-22.802814 18.245281 58.296021
-22.197678 18.243824 57.489433
-15.211151 19.402859 57.594696
-15.058203 19.307381 56.629089
-14.962873 19.197332 55.622459
-19.248026 14.340353 22.351143
-17.546654 14.607786 22.25811
-16.4128 14.721029 21.675621
-17.670383 14.159937 18.833746
-18.518894 13.705228 16.306507
-19.394064 13.23433 13.684654
-20.241896 12.762493 11.019361
-20.901714 12.336868 8.4772034
-21.511131 11.917994 5.922905
-23.62068 11.041939 1.6775818
-25.914762 16.652771 58.11673
-20.822481 17.680906 59.235008
-20.629419 17.586615 58.26535
-19.344231 17.746286 57.789635
-14.730291 18.5574 57.888214
-13.924997 18.613091 57.253281
-13.889061 18.484398 56.228775
-18.86277 13.415615 24.270348
-16.770073 13.811021 24.524025
-15.712087 13.910412 23.888996
-15.596104 13.733088 22.39007
-17.287781 13.013094 19.144699
-18.173679 12.522392 16.582073
-19.0527 12.024569 13.956324
-19.947939 11.512335 11.242464
-20.565838 11.076225 8.7423592
-21.572742 10.51001 5.7652588
-18.224476 17.165752 59.413994
-17.637287 17.165909 58.643776
-16.806391 17.226423 57.989059
-15.125309 17.499935 57.754787
-13.590667 17.740688 57.476456
-12.705913 17.820478 56.890099
-11.694699 17.933727 56.379105
-10.710759 18.041677 55.865707
-9.5104523 18.207314 55.484402
-18.258541 12.577583 26.344246
-16.017025 13.037903 26.722042
-14.979753 13.138508 26.085558
-13.943168 13.240724 25.461609
-15.59159 12.509285 22.347952
-16.844746 11.888458 19.51339
-18.415859 11.155257 16.285456
-19.308634 10.625298 13.63331
-20.240429 10.072657 10.868725
-22.025993 9.2309742 7.1395416
-23.775177 14.759487 57.00016
-16.016468 16.599339 59.455868
-15.257066 16.646906 58.785294
-14.56424 16.677742 58.087162
-13.875568 16.707941 57.390102
-12.596948 16.895361 56.998878
-11.075656 17.150578 56.754913
-9.7893982 17.34626 56.41045
-8.5236683 17.539356 56.075157
-7.5499668 17.655434 55.594032
-6.5531216 17.779701 55.138813
-5.5560694 17.905972 54.69709
-4.5741591 18.029987 54.259758
-3.6058006 18.152147 53.827461
-2.8587666 18.213207 53.265884
-17.669601 11.760771 28.365639
-15.285737 12.287609 28.855797
-14.266651 12.389835 28.219837
-13.256281 12.491107 27.588768
-12.318705 12.570651 26.903959
-15.212395 11.399609 22.655056
-19.182343 9.8518543 17.230316
-20.008173 9.3218517 14.671741
-20.827951 8.7838631 12.050316
-23.256844 13.67234 56.195839
-14.214161 15.962271 59.34024
-13.083428 16.116322 58.865524
-12.406679 16.147238 58.179367
-11.730794 16.178379 57.495804
-11.056084 16.20966 56.814713
-10.174041 16.300005 56.248749
-8.4193048 16.640228 56.175735
-7.2365379 16.821589 55.811829
-6.07831 16.998676 55.452137
-4.9489241 17.170135 55.093418
-3.837925 17.338909 54.741211
-2.7616081 17.500101 54.38485
-1.9236994 17.59273 53.891838
-1.3210907 17.616055 53.253265
-0.96816063 17.564022 52.448296
-17.304966 10.896359 30.165545
-14.787986 11.489512 30.750563
-13.741329 11.607517 30.149826
-12.704624 11.724323 29.554295
-11.643442 11.851478 28.994493
-12.303791 11.396685 26.878281
-14.78582 10.309538 23.00651
-23.675526 12.489433 56.075607
-22.980598 12.506367 55.26894
-12.990669 15.188503 58.969147
-11.830849 15.360106 58.521931
-10.939335 15.456207 57.953598
-9.9799261 15.573673 57.430073
-9.3195944 15.604565 56.756413
-8.6601009 15.635683 56.08527
-8.0027676 15.666635 55.415924
-6.1881127 16.048023 55.424339
-4.8775249 16.281796 55.169014
-3.7840881 16.452572 54.803818
-2.6921806 16.625607 54.454796
-1.3936644 16.865921 54.256355
-0.8962822 16.858047 53.553604
-0.51896763 16.811954 52.768852
-1.2351151 16.415337 51.221889
-14.585253 10.613805 32.369923
-13.254683 10.835302 32.011364
-12.007554 11.031917 31.606333
-10.778974 11.225607 31.207329
-10.322832 11.151042 30.140438
-12.288781 10.2151 26.852438
-14.360943 9.223774 23.356573
-23.588112 11.250484 55.052288
-22.780037 11.300414 54.290695
-22.35685 11.235049 53.342163
-22.96748 10.85466 51.859394
-24.298502 10.248 49.963799
-7.9760227 15.076672 57.526871
-7.3274574 15.108458 56.865833
-6.6820397 15.139752 56.205978
-6.0387025 15.17088 55.547855
-5.396944 15.201998 54.891747
-4.7572489 15.232949 54.237347
-2.4485121 15.803929 54.634274
-1.2722969 16.015083 54.357533
-0.86351109 15.97756 53.595146
-0.45884609 15.938055 52.826271
-0.58031178 15.722179 51.689117
-13.553897 10.044449 34.626789
-11.822433 10.420368 34.610359
-10.524178 10.648012 34.272343
-9.2478981 10.8718 33.940037
-8.3572617 10.9592 33.295067
-10.414246 9.9650269 30.025414
-12.273673 9.0258217 26.826424
-5.8224783 10.689369 28.344521
-5.4014511 10.599227 27.249985
-23.472916 9.9968796 54.022774
-22.731848 10.026456 53.219688
-22.138184 10.009813 52.343956
-22.834715 9.5813456 50.790428
-24.045408 8.9810276 48.922234
-6.6400633 14.401764 57.288452
-5.3999996 14.629728 56.972836
-4.7683601 14.661089 56.323776
-4.1382389 14.69244 55.676666
-3.5101209 14.723625 55.031219
-2.0799046 15.025589 54.892147
-1.2321243 15.1346 54.406525
-0.67411137 15.146153 53.740074
-0.39823341 15.06048 52.884087
0.46117401 15.176546 52.423843
-0.010559082 14.827214 51.03093
-9.1426029 10.964004 40.770035
-8.5163593 10.964872 39.952393
-7.8691816 10.973431 39.15155
-9.8859081 9.9973469 36.177299
-7.3531837 10.700695 36.902431
-7.0308957 10.584845 35.811619
-6.7057562 10.467976 34.711197
-6.3650112 10.354949 33.612415
-6.0038924 10.247715 32.520237
-5.7784362 10.085526 31.289663
-5.393218 9.9832354 30.194309
-4.9566369 9.8994322 29.138
-4.5176396 9.814992 28.074844
-4.1328311 9.7069445 26.946861
-3.8124542 9.570405 25.739368
-3.4891558 9.4323778 24.519466
-3.1626015 9.2929573 23.287262
-2.8324451 9.1522474 22.0429
-2.4992218 9.0099812 20.785536
-2.16259 8.8662605 19.51532
-23.412556 8.7021389 52.946541
-22.809551 8.685606 52.062935
-22.597042 8.5391779 50.973499
-22.536688 8.339592 49.78978
-3.7572761 14.091162 56.947823
-2.9176569 14.198313 56.437813
-2.3007059 14.229704 55.801086
-1.684763 14.26125 55.166523
-0.79372406 14.390583 54.711723
-0.015666962 14.481758 54.194183
0.58278465 14.509882 53.563671
0.62382889 14.336443 52.550007
-0.49060249 13.737763 50.701073
-8.1265039 10.725128 44.060944
-7.7333755 10.645754 43.105297
-7.3169289 10.573757 42.15984
-6.8110781 10.534319 41.277111
-6.3040085 10.494656 40.391533
-5.8866234 10.419767 39.428837
-6.1810994 10.067083 37.864048
-5.84163 9.9564562 36.805946
-5.5019684 9.8438969 35.736893
-5.1732454 9.7249012 34.646603
-4.8281527 9.6102953 33.559093
-4.6782379 9.4142017 32.277058
-4.4104624 9.2627697 31.08733
-4.0352206 9.1529722 29.986824
-3.657289 9.0421858 28.877316
-3.2281227 8.9508829 27.808323
-2.8774691 8.8243074 26.647272
-2.5528679 8.6840029 25.444473
-2.2250376 8.5422945 24.229668
-1.8936243 8.3992949 23.00301
-1.6188402 8.2282372 21.69548
-1.3413391 8.0548716 20.371607
-1.0601883 7.8795404 19.032066
-0.77562332 7.7020802 17.676256
-1.0910053 7.2431951 15.551249
-2.3640652 4.576787 2.4686508
-1.3008289 4.7343755 1.9440002
-10.305007 13.296916 66.190048
-9.0536404 13.532036 65.797531
-8.5984898 13.509808 65.081345
-23.615887 7.291471 51.71455
-21.940952 7.6411576 51.375351
-19.530785 8.2519112 51.459728
-20.167557 7.8043957 49.914536
-12.769639 9.9750013 51.748428
-2.6224689 13.399946 56.646435
-1.5857506 13.584688 56.267776
-1.4707232 13.43635 55.327213
-0.49834728 13.600749 54.924812
0.28996468 13.699636 54.41555
0.63607597 13.634914 53.616447
0.6774044 13.454262 52.600723
-6.4701004 10.538792 46.473717
-6.258297 10.394057 45.425213
-6.1315231 10.213971 44.300262
-5.8089347 10.107114 43.307808
-5.3998256 10.032413 42.372833
-5.1796727 9.8814325 41.280125
-5.0181298 9.7043095 40.125271
-5.3669271 9.3179102 38.527042
-4.8502617 9.2771978 37.631668
-4.5357552 9.1526089 36.555466
-4.2187033 9.026783 35.469337
-3.8984976 8.8999376 34.373638
-3.6974216 8.7203417 33.15369
-3.5259323 8.5247145 31.887295
-3.225585 8.3808708 30.727215
-2.9029846 8.2439289 29.574638
-2.577014 8.1057968 28.411297
-2.2326574 7.9730968 27.252716
-1.9531698 7.8087001 26.010658
-1.6704998 7.642437 24.754486
-1.3845997 7.4742761 23.483969
-1.0954199 7.304183 22.19886
-0.80261612 7.132256 20.899235
-0.50669575 6.9581995 19.584181
-0.20731544 6.7821112 18.253767
-0.017456055 6.5495143 16.766489
-2.0529718 5.2286663 12.410837
-6.0249968 2.9260473 5.3740463
-4.8783016 2.7397943 2.8764839
-3.5096369 3.0481291 2.7195396
-2.179039 3.3439217 2.5458412
-1.0499611 3.5416574 2.1150131
-11.024444 12.331621 66.882576
-9.5431252 12.650023 66.568405
-8.3245802 12.884352 66.168571
-7.8787451 12.859423 65.455154
-7.6811237 12.749131 64.630341
-8.0931158 12.426908 63.520245
-21.582138 6.8795214 52.810905
-17.716696 8.032093 53.639786
-15.847632 8.4818325 53.48933
-13.276033 9.1941776 53.761795
-11.566002 9.6018143 53.604488
-9.991724 9.9657412 53.401505
-8.5547533 10.284333 53.146568
-2.0746498 12.501904 55.998596
-1.1130772 12.666284 55.577854
-0.18143177 12.82193 55.151672
0.55119705 12.903561 54.607613
0.62118244 12.729425 53.62328
0.66253662 12.541163 52.604172
-5.0347524 10.085262 47.502441
-5.0461245 9.8502359 46.312939
-4.972218 9.6453934 45.166092
-4.9187455 9.4287214 43.985466
-4.8660545 9.2079344 42.784779
-4.6148195 9.0650511 41.722515
-4.2968054 8.947381 40.70174
-3.9975781 8.8197136 39.654411
-4.6116619 8.3031693 37.813938
-4.2963943 8.1741114 36.738411
-3.9970031 8.0358267 35.636456
-3.7363892 7.8780899 34.485748
-3.5343423 7.6916561 33.264919
-3.3561831 7.4910874 32.003025
-3.0645399 7.3374662 30.832651
-2.7405014 7.1955061 29.679485
-2.3505421 7.0808582 28.579685
-1.983428 6.9534111 27.444309
-1.702549 6.7832761 26.203447
-1.4184904 6.611207 24.948494
-1.1311817 6.4371743 23.679211
-0.84961891 6.2568035 22.384995
-0.57745457 6.0681233 21.060543
-0.30222702 5.8769808 19.719448
-0.023300171 5.6836095 18.36207
0.086724281 5.4015532 16.772079
-1.3623257 4.3246279 13.156645
-3.1399508 3.0560255 8.9905376
-5.5762863 1.4186454 3.7998505
-4.5781097 1.5405493 3.1133461
-3.3254089 1.7998266 2.7964935
-2.0026054 2.1025543 2.6102295
-0.94842434 2.2669449 2.0678902
-11.985652 11.275932 67.493904
-10.303396 11.671421 67.23793
-8.79284 12.01297 66.94101
-7.6061764 12.246149 66.53418
-7.1667509 12.219383 65.824707
-6.9656582 12.107608 65.008339
-7.0789747 11.88172 64.041214
-7.6135511 11.500657 62.860847
-8.0367575 11.154289 61.705589
-19.41011 6.5653753 53.974831
-15.637672 7.7314315 54.780052
-12.907271 8.525528 55.116493
-11.16843 8.9579802 54.968796
-9.4101868 9.4046307 54.865757
-8.0947733 9.6886644 54.541042
-2.6937237 11.555644 56.669724
-1.7237864 11.727097 56.242638
-0.68148232 11.929756 55.874657
0.132967 12.045547 55.376831
0.57239628 12.013577 54.641647
0.60640621 11.817911 53.630306
-0.12312031 11.309076 52.074783
-4.4705677 9.3108387 47.913609
-4.5492358 9.040494 46.681339
-4.5336151 8.8047371 45.496086
-4.4581847 8.5899906 44.336071
-4.4434142 8.3457699 43.110123
-4.2619557 8.1684666 41.995808
-3.9433398 8.047143 40.977879
-3.8612642 7.8206964 39.751331
-4.3731074 7.3293328 37.99617
-3.9232569 7.2551031 37.038513
-3.6221576 7.1129694 35.940788
-3.2315073 7.0085993 34.911995
-3.3686609 6.6617308 33.378494
-3.1858006 6.4554682 32.119267
-2.898037 6.2939553 30.943321
-2.5050497 6.1786518 29.857437
-2.1091089 6.0624838 28.763405
-1.7549639 5.9240155 27.614105
-1.5229874 5.7237539 26.320011
-1.2880154 5.5209012 25.009172
-1.0499744 5.3154087 23.681263
-0.80853462 5.1073666 22.336294
-0.56419754 4.8964376 20.973259
-0.31661797 4.6827083 19.592127
-0.087157249 4.4551082 18.166271
-0.19498444 4.0473619 16.293488
-1.5238094 2.9894476 12.812553
-3.4954901 1.5668736 8.3745213
-5.2051897 0.25327873 4.1307449
-4.2057276 0.38105679 3.4491043
-3.3499336 0.43284798 2.5807915
-9.5294361 11.042927 67.612823
-8.0671206 11.38077 67.302658
-7.0420218 11.565107 66.834946
-6.5040817 11.574328 66.172264
-6.2858696 11.466124 65.36972
-6.1104784 11.340446 64.540115
-6.3312826 11.06502 63.516998
-6.6425228 10.751427 62.43071
-7.1994314 10.339979 61.200592
-16.050146 6.7556672 55.737877
-12.86974 7.7449093 56.276512
-10.512785 8.4302702 56.448013
-9.002799 8.7954025 56.205338
-7.912715 9.0009232 55.753258
-6.9507713 9.1588497 55.242584
-2.3317795 10.782896 56.918072
-1.2700424 10.998079 56.549294
-0.3103199 11.175284 56.133461
0.31696415 11.219075 55.518234
0.55774307 11.103773 54.652203
0.59131527 10.900141 53.63723
-4.084013 8.7130365 49.351219
-4.078814 8.4735432 48.202538
-3.9942865 8.2638645 47.091805
-4.0529432 7.9887819 45.857323
-4.016675 7.7502003 44.672173
-3.9912572 7.502646 43.458504
-3.9104156 7.275239 42.268082
-3.8528872 7.03333 41.039146
-3.7598848 6.8030367 39.818989
-3.7678661 6.5225801 38.492317
-3.5118141 6.3582106 37.372288
-3.3036566 6.1685801 36.194729
-3.0338278 6.0042429 35.056755
-3.5860195 5.4485135 33.132534
-3.5669551 5.1545515 31.705942
-3.4562755 4.899013 30.342205
-3.2793617 4.6706872 29.021204
-3.090065 4.4439397 27.691456
-2.8634739 4.2311692 26.37936
-2.6339035 4.0156074 25.050041
-2.4115524 3.7920165 23.691925
-2.2367249 3.5395427 22.258532
-2.0595207 3.2830572 20.802889
-1.8792934 3.0227771 19.32518
-3.0255928 2.0574093 16.228327
-2.257761 2.0916371 15.382879
-2.8708839 1.3825703 12.807619
-3.3491716 0.73143387 10.331438
-3.7190523 0.12559509 7.9288139
-4.101469 -0.50077629 5.4447632
-8.7722502 10.422451 67.980057
-7.5955038 10.667198 67.561508
-6.6348133 10.834518 67.070175
-5.8891335 10.923105 66.498642
-5.6696577 10.812814 65.702354
-5.5022211 10.680931 64.874985
-5.6925573 10.408911 63.872139
-5.7620497 10.179787 62.908131
-6.0044508 9.8793774 61.842934
-9.2312727 8.3953037 59.246422
-8.623724 8.4147968 58.538116
-8.8099461 8.1161079 57.40704
-7.8235478 8.2869158 56.897995
-6.8346505 8.4614515 56.402832
-5.7692523 8.6702127 55.964817
-1.8643303 10.058398 57.22892
-0.81071186 10.27861 56.859123
-0.102314 10.357109 56.290104
0.50102329 10.392311 55.659679
0.54298973 10.187847 54.662834
0.57611942 9.9761333 53.644203
-3.6531692 7.9057131 49.663956
-3.7405481 7.6179876 48.453541
-3.6500878 7.4040346 47.349289
-3.5580482 7.1870699 46.229088
-3.5335746 6.9358635 45.039932
-3.6287394 6.6258373 43.73703
-3.8293009 6.2619505 42.324505
-3.9859843 5.911809 40.917652
-4.1462746 5.5536232 39.478481
-4.0934119 5.2892923 38.191589
-4.1611061 4.9627419 36.776489
-4.7289438 4.3900452 34.884689
-4.6344399 4.1274376 33.551033
-4.6915965 3.7856522 32.051926
-4.6237044 3.4990478 30.6427
-7.6931486 -2.5939884 6.6115341
-6.613493 -2.4206543 5.9916229
-5.8472147 -2.4222708 4.977581
-8.4361677 9.6550713 68.183113
-7.1325855 9.9572248 67.81633
-6.2168856 10.1135 67.309418
-5.286911 10.277649 66.818825
-5.0919189 10.155207 66.01738
-4.9323072 10.016916 65.191841
-5.0492067 9.7661648 64.228683
-5.2672415 9.4709263 63.200256
-5.4755387 9.1751146 62.15649
-8.4791765 7.7330933 59.680111
-8.1543055 7.6386228 58.832634
-7.9348021 7.4989638 57.922318
-7.1405568 7.5973897 57.317322
-5.4419765 8.0784788 57.228554
-2.7097683 9.006361 57.771774
-1.529911 9.2844915 57.460545
-0.52351379 9.4922743 57.063877
0.082389832 9.5291481 56.432167
0.50425053 9.4858646 55.685242
0.52813721 9.2657375 54.673531
-3.0112791 7.4517117 51.24424
-3.2250862 7.1035776 49.974693
-3.3262444 6.8006096 48.758316
-3.3107662 6.545804 47.60321
-3.3981447 6.2390542 46.351883
-3.5835018 5.8812551 45.001923
-3.7606993 5.5209427 43.630047
-3.9274459 5.1591311 42.23777
-4.0860205 4.794693 40.823055
-4.2382593 4.4266672 39.384037
-5.3259873 3.5959716 37.113415
-8.1575127 8.8685646 68.363708
-6.6665192 9.2552872 68.071884
-5.7567987 9.4150772 67.565552
-5.1417513 9.4584408 66.944511
-4.7641497 9.4060154 66.222534
-4.3686123 9.3601437 65.505234
-4.3732777 9.1485863 64.599556
-4.669476 8.8127041 63.540989
-4.9368658 8.4837246 62.474327
-7.8083591 7.0511556 60.071995
-7.7774563 6.8301277 59.078762
-7.7130432 6.6199841 58.088425
-6.9637046 6.7022972 57.458847
-3.7721004 7.8490453 58.208794
-2.4625015 8.1884165 57.951172
-1.4155502 8.4171085 57.561546
-0.55855465 8.5648251 57.072437
0.26649475 8.7006121 56.573879
0.48933983 8.5656185 55.699326
0.46640778 8.3159962 54.653568
-2.6940479 6.6155686 51.476341
-2.7997465 6.3065786 50.283436
-3.0282803 5.9346642 48.98069
-3.3353024 5.5191717 47.59322
-3.4965978 5.1659451 46.282692
-3.7083249 4.7822075 44.906906
-3.8940659 4.4042563 43.521923
-4.0265427 4.0456119 42.150185
-4.1859374 3.6671591 40.728432
-4.3188534 3.2949896 39.298981
-5.2698393 2.5039368 37.138767
-6.2789879 8.5280762 68.295662
-5.8393888 8.4994297 67.598602
-5.4844122 8.4351559 66.863983
-5.1278296 8.370594 66.126045
-4.747798 8.3149643 65.394592
-4.6564884 8.1356564 64.5261
-4.7829866 7.8602395 63.542511
-6.2544384 6.999588 61.882534
-7.3865318 6.2733159 60.337753
-7.4955506 5.9845495 59.275471
-7.4963527 5.7390862 58.251804
-6.6029434 5.8882799 57.701035
-3.6300092 6.9741359 58.328777
-2.3236952 7.3227077 58.067936
-1.450983 7.4789777 57.573891
-0.55723381 7.647491 57.103325
0.14731216 7.730978 56.526348
0.15423584 7.4893651 55.508606
-0.43619919 6.9617696 54.081696
-2.1039371 5.9124889 51.892113
-2.6718359 5.373198 50.386772
-3.1637497 4.8613939 48.896366
-3.412158 4.4595985 47.545334
-3.6091156 4.0761013 46.203098
-3.8235188 3.6771345 44.819214
-4.0223694 3.278841 43.417694
-4.1266193 2.9212341 42.061756
-4.2660427 2.5391588 40.649883
-4.4004741 2.152637 39.212894
-7.1609716 7.2693367 68.015625
-6.6147795 7.2818341 67.348709
-5.9623098 7.340097 66.727386
-5.530364 7.3039417 66.013664
-5.17068 7.2357831 65.265366
-5.3901548 6.9125261 64.245544
-6.9485178 5.9924812 62.569519
-7.4721708 5.5191383 61.341942
-6.9485545 5.5085649 60.61132
-7.1840816 5.1543627 59.487373
-7.3448982 4.8286324 58.380501
-5.7239299 5.3166928 58.226185
-3.7546697 5.9739661 58.299103
-2.2713623 6.4149013 58.134914
-1.3662243 6.590775 57.657612
-0.4711771 6.7647519 57.18589
-0.29312515 6.5983863 56.27877
-0.24085903 6.3685193 55.279911
-1.2216616 5.6318927 53.587425
-1.6154203 5.170928 52.2393
-2.6208839 4.3991723 50.437054
-3.3006458 3.7767191 48.811142
-3.511272 3.3797436 47.481392
-3.7230058 2.9752092 46.122509
-3.9396286 2.5609813 44.730827
-7.2212172 6.1134253 67.16967
-6.6791868 6.1220355 66.49144
-6.50457 5.9672017 65.654259
-6.4365091 5.7622252 64.760208
-8.590126 4.0460443 60.852303
-7.9470205 4.0856829 60.163109
-7.665761 3.9572458 59.289455
-7.5626516 3.743063 58.313217
-5.8190355 4.3024969 58.218849
-3.9913144 4.9111004 58.207024
-2.4798012 5.3773799 58.051865
-1.3094311 5.6857381 57.724922
-0.9067688 5.623548 56.951851
-0.75212097 5.4379625 56.020172
-0.91451263 5.0915327 54.873569
-1.1580563 4.698523 53.650719
-1.3835812 4.3079224 52.413651
-2.5066862 3.4525113 50.531029
-3.4261179 2.6870947 48.734131
-3.6238952 2.2830195 47.407722
-7.3649311 2.5721445 57.421082
-6.0929632 2.9187064 57.070847
-4.7492933 3.3064594 56.783394
-2.7127743 4.0468497 56.929596
-2.1180487 4.072957 56.247837
-1.5390148 4.0915279 55.557976
-2.4912739 3.3257771 53.890827
-3.3664646 2.5868492 52.224655
-3.7484117 2.0923347 50.84193
-5.9969664 1.6854553 56.105087
-5.0454483 1.8832474 55.587318
-25.769341 20.846773 2.5848236
-24.131512 21.305019 2.6142311
-25.223549 19.783756 3.1340332
-23.647163 20.21574 3.0828629
-24.973717 18.520987 3.2929955
-23.485477 18.903408 3.1157112
-24.708473 17.257179 3.4709358
-23.321674 17.577091 3.1494141
-25.606899 15.821842 4.2930794
-24.095974 16.231293 4.1071396
-23.173857 16.22337 3.1593857
-25.112507 15.377674 6.9048805
-23.65794 15.761137 6.656723
-22.258282 16.114418 6.3685303
-23.039995 14.842352 3.1481895
-24.546665 15.005702 9.5554905
-22.687206 15.704362 9.8338852
-21.613857 15.831718 9.1502457
-21.335621 15.35745 7.4207687
-22.932716 13.422972 3.0985069
-21.822845 15.59796 12.803083
-20.789827 15.709089 12.100922
-20.396648 15.329031 10.576206
-21.041315 14.125795 7.6385193
-21.593735 12.96211 4.7263336
-20.488285 15.877801 16.272633
-19.60643 15.891107 15.429329
-19.368259 15.400369 13.769049
-20.116596 14.112522 10.785324
-20.719507 12.905958 7.8917198
-21.266445 11.711048 4.975914
-19.265297 16.108608 19.516479
-18.410172 16.117466 18.68635
-18.20319 15.611498 17.051697
-19.045124 14.246769 14.042841
-19.834511 12.887189 10.99596
-20.395687 11.678451 8.1464958
-19.146406 15.507368 21.397415
-17.949327 15.79314 20.985731
-16.942215 15.933516 20.364416
-17.875914 14.492861 17.338728
-18.719833 13.08689 14.318583
-19.550373 11.652927 11.208126
-19.471169 14.563439 22.751705
-17.860197 15.18688 22.810156
-16.880711 15.31132 22.163891
-16.593161 14.866535 20.685314
-17.535305 13.378081 17.641743
-18.373596 11.936668 14.620281
-18.06307 14.351611 24.280607
-16.797178 14.716187 23.966185
-15.831972 14.838475 23.320126
-16.153568 13.870691 21.115997
-17.967852 11.590382 16.979141
-33.010571 21.116913 59.818146
-32.182743 21.188644 59.172821
-31.372231 21.251575 58.52243
-18.314363 13.479389 25.689766
-16.70248 14.139572 25.757593
-15.753895 14.25424 25.100756
-14.802588 14.374348 24.455036
-15.713399 12.873501 21.547243
-32.33099 20.464497 60.349236
-31.202797 20.717308 59.848309
-30.688652 20.607681 59.06216
-29.800919 20.721439 58.456676
-16.980444 13.256075 27.113573
-15.66767 13.685946 26.867367
-14.730072 13.800556 26.214134
-13.791746 13.91894 25.569534
-15.272629 11.874987 21.97908
-30.83358 19.891586 60.235378
-29.445091 20.314106 59.869461
-28.956955 20.188583 59.077538
-27.743839 20.512585 58.648567
-17.180635 12.440722 28.549889
-15.678251 13.042397 28.503674
-14.651484 13.240836 27.957172
-13.724648 13.355373 27.307537
-12.79947 13.471547 26.663521
-14.831557 10.874871 22.411148
-27.736347 19.906212 59.881161
-24.038492 21.827156 60.719315
-23.576836 21.701408 59.960724
-23.878853 21.076786 58.787792
-15.88703 12.231188 29.90848
-14.578836 12.684525 29.670769
-13.653964 12.803554 29.026962
-12.737647 12.91799 28.380873
-11.82501 13.032176 27.737869
-26.060799 19.502073 59.890308
-23.05629 21.032942 60.413662
-22.800314 20.765947 59.542397
-22.624168 20.440088 58.615318
-16.208652 11.322143 31.187645
-14.727043 11.937374 31.123825
-13.665812 12.184707 30.632566
-12.72988 12.322628 30.014473
-11.798995 12.459605 29.39925
-10.862654 12.605606 28.799366
-4.6111631 3.8319726 2.3291779
-2.8465576 4.9199138 3.0717125
-1.6513243 5.311038 2.7778168
-24.430401 19.092705 59.890232
-24.671024 18.470379 58.730927
-22.693832 19.358864 58.752396
-15.069926 11.016388 32.361961
-13.697716 11.553918 32.198929
-12.766707 11.692511 31.579689
-11.793741 11.874762 31.016697
-10.789978 12.09172 30.500984
-10.991602 11.137555 28.556198
-8.3368416 2.0492797 5.457222
-6.1282682 3.6163998 6.7739105
-6.5744972 1.9530745 3.4784622
-4.9885454 2.790626 3.7765961
-3.8452072 3.0909858 3.3089218
-2.5576954 3.5912309 3.1467171
-1.3187742 4.0459023 2.9305878
-22.829643 18.687099 59.888115
-23.580912 17.689625 58.448582
-21.409832 18.744818 58.59507
-15.572254 9.9481421 33.436943
-13.904471 10.765778 33.564972
-12.71897 11.148514 33.220093
-11.714647 11.367699 32.697174
-10.718591 11.58489 32.17815
-9.7301855 11.800597 31.663509
-11.265371 9.4962721 28.137598
-7.44699 3.5947986 11.357534
-5.5579853 4.8083067 12.133816
-3.6145892 6.1307855 13.095041
-1.7942781 7.3463287 13.944485
-4.0881166 3.3742652 7.5142937
-4.5715876 1.6006846 4.1023674
-3.5559473 1.7382708 3.3889122
-2.2735977 2.2396226 3.2077065
-1.0184174 2.7232146 3.0146599
-21.267094 18.278255 59.878838
-20.589031 18.288347 59.22242
-19.853542 18.340708 58.599236
-19.346581 18.225033 57.84417
-14.920501 20.081848 57.400753
-14.560089 19.86681 56.579105
-14.305407 19.56459 55.676197
-14.007458 10.078161 35.030907
-12.448931 10.824938 35.074135
-11.445625 11.053197 34.560421
-10.450363 11.279805 34.051208
-9.537878 11.43016 33.461216
-8.6489639 11.560922 32.852772
-11.713121 7.6403675 27.507774
-5.212204 11.177686 28.594013
-4.6538615 10.951423 27.550362
-4.1403046 10.667835 26.428539
-3.621419 10.381298 25.295065
-3.0971241 10.091779 24.149784
-2.5675468 9.7989731 22.992168
-2.0321703 9.5033321 21.822678
-1.491128 9.2045584 20.640797
-0.94806767 8.8979626 19.440123
-0.48460388 8.4802952 18.080811
-0.59585094 7.3105726 15.68313
-2.3833752 3.9090919 10.174858
-4.1535721 0.40451622 4.4281235
-19.738043 17.868168 59.864197
-18.907183 17.996649 59.302509
-18.105082 18.106045 58.729599
-17.425028 18.124443 58.088089
-15.929799 18.772951 57.951527
-14.18562 19.629723 58.002335
-13.891747 19.360435 57.144291
-13.565021 19.111462 56.295952
-14.182437 9.3263092 36.412861
-12.450539 10.250511 36.617222
-11.382325 10.548953 36.174267
-10.349854 10.820024 35.709705
-9.327446 11.08845 35.249664
-8.3147221 11.35451 34.794353
-9.332592 9.524334 31.97789
-6.7911472 11.382179 33.328747
-6.2584925 11.152278 32.314434
-5.7019091 10.941457 31.316168
-5.1275826 10.743761 30.327656
-4.5491123 10.544641 29.332016
-3.9664521 10.34407 28.329149
-3.426507 10.088026 27.252773
-2.9068203 9.8000917 26.129848
-2.3819542 9.5089216 24.994961
-1.8513994 9.2149658 23.848553
-1.3192081 8.913106 22.683945
-0.86614513 8.5020714 21.369738
-0.40629482 8.0853233 20.036777
0.060285568 7.6624861 18.684324
0.41035557 7.0709481 17.094946
-2.8263044 1.6475449 8.9692364
-17.950983 17.6786 60.008453
-17.306177 17.673405 59.353012
-16.567606 17.741352 58.75351
-15.893642 17.759735 58.117176
-14.145771 18.635574 58.161964
-13.091894 18.970608 57.793831
-12.797605 18.693459 56.932274
-12.056376 18.778744 56.365604
-14.392731 8.5434179 37.752399
-12.585137 9.5524883 38.010162
-11.414366 9.957962 37.669308
-10.386971 10.230537 37.199818
-9.3240604 10.546737 36.784103
-8.1081791 11.02955 36.556435
-7.0473547 11.363792 36.179737
-6.5184889 11.14311 35.199181
-5.9803672 10.925984 34.216648
-5.4235725 10.722837 33.244057
-4.9819703 10.385883 32.112782
-4.4338107 10.158639 31.099497
-3.8809381 9.9297609 30.078159
-3.3096848 9.715044 29.067425
-2.7230377 9.5116434 28.064461
-2.2003012 9.2250481 26.955124
-1.6787977 8.9275217 25.824648
-1.2353106 8.5234022 24.554012
-0.80365467 8.0906248 23.236549
-0.40500164 7.6005549 21.834829
0.00065898895 7.1023693 20.409485
0.37270451 6.5416822 18.88983
0.27459431 5.3249669 16.497583
-16.487457 17.27055 59.985779
-15.785761 17.314251 59.371487
-15.054353 17.382866 58.777306
-14.386375 17.401237 58.146072
-13.081763 17.944941 57.928867
-12.149001 18.190697 57.487617
-11.21644 18.441795 57.057255
-10.515671 18.500965 56.474823
-9.6006012 18.746292 56.050411
-9.0688944 18.66288 55.351879
-8.8059044 18.340338 54.443802
-14.156311 9.6556263 42.424786
-12.701599 10.335003 42.328827
-11.840391 10.453863 41.705341
-10.653291 10.897453 41.405418
-9.3901901 11.42885 41.205112
-8.5181618 11.578222 40.631828
-7.8630891 11.508797 39.837906
-7.6642265 10.962271 38.54599
-6.7531509 11.152628 38.015629
-6.2292442 10.933658 37.053783
-5.7011318 10.712932 36.084221
-5.1687679 10.490417 35.106827
-4.6257968 10.27315 34.129322
-4.1621437 9.9592142 33.037796
-3.7100835 9.6222763 31.91186
-3.1577282 9.3923235 30.899597
-2.6008472 9.1604824 29.879036
-2.1068192 8.8451805 28.754402
-1.6929188 8.4211264 27.492393
-1.3098783 7.9444199 26.155941
-0.92064285 7.4594841 24.796833
-0.52462864 6.9666338 23.415119
-0.15673351 6.4195819 21.953119
0.21151638 5.8535366 20.45278
0.49629021 5.1532459 18.767426
-15.091932 16.829393 59.935158
-14.228462 17.011183 59.427017
-13.566073 17.029373 58.800186
-12.904381 17.047377 58.173683
-12.821145 16.572975 57.16317
-10.908712 17.663818 57.382927
-9.9461842 17.951824 56.983345
-8.9791145 18.250492 56.600052
-8.1610308 18.423271 56.11969
-7.3440504 18.59914 55.646469
-6.5238366 18.782169 55.184006
-5.7111878 18.962637 54.724106
-5.2609482 18.80851 53.97261
-4.9215107 18.545628 53.119331
-12.87354 10.32502 45.003151
-11.765466 10.693995 44.616283
-10.946335 10.788252 43.981392
-10.12978 10.882409 43.348877
-9.2013779 11.091981 42.830112
-8.272192 11.307973 42.323109
-7.5342007 11.331546 41.631195
-6.8848639 11.262548 40.846992
-6.2338924 11.193377 40.060818
-6.0287285 10.640247 38.77449
-5.4380999 10.493968 37.897942
-4.906105 10.278178 36.944157
-4.3699636 10.060697 35.982922
-3.8296032 9.8415108 35.014133
-3.3334036 9.5642653 33.976025
-3.0705891 9.0026751 32.615513
-2.718605 8.5304441 31.340492
-2.3208122 8.0989866 30.099361
-1.8645353 7.7259903 28.914017
-1.4230652 7.3220358 27.682968
-1.0363503 6.8344049 26.343117
-0.67223549 6.3006964 24.935802
-0.79416847 5.104383 22.719391
-13.956029 16.189516 59.737549
-12.757893 16.663284 59.444599
-12.10106 16.681644 58.822842
-11.444726 16.699982 58.201542
-10.789071 16.718134 57.580574
-10.133707 16.736448 56.960197
-8.7592316 17.40295 56.859146
-7.7496357 17.752586 56.517563
-6.7875004 18.066776 56.15572
-5.9822087 18.242142 55.685486
-5.1713943 18.427006 55.227867
-4.3682232 18.609121 54.772652
-3.5708466 18.790174 54.321194
-2.8841791 18.867252 53.781792
-2.6617308 18.485275 52.829536
-2.6090021 17.922638 51.701832
-8.5585423 11.227359 44.859352
-7.8460865 11.234389 44.160328
-7.2153759 11.156042 43.379929
-6.6036921 11.055361 42.575878
-5.973043 10.972286 41.786507
-5.3404789 10.88896 40.994743
-4.9327526 10.554458 39.947914
-4.666708 10.051206 38.720356
-4.2337008 9.7233543 37.660954
-3.8348117 9.3462782 36.541622
-3.4455624 8.9464626 35.388481
-3.1380386 8.4369688 34.107521
-2.8820181 7.849226 32.728554
-2.5336285 7.3563986 31.438568
-2.0852718 6.972568 30.256863
-1.6006651 6.6222005 29.102844
-2.0481634 5.0568967 26.559668
-11.87303 15.826112 59.100502
-10.788815 16.223921 58.759346
-10.048704 16.321365 58.201248
-9.357935 16.376169 57.612846
-8.7252159 16.378834 56.9851
-8.2172508 16.265377 56.265213
-6.6956925 17.104458 56.310951
-5.7057381 17.456802 55.979134
-4.7350092 17.799236 55.648026
-3.8390279 18.07711 55.27108
-3.0460339 18.260036 54.819771
-2.2862864 18.414295 54.348156
-1.6108742 18.486897 53.808357
-0.94699669 18.54953 53.261471
-0.91055107 17.959816 52.123512
-6.7513132 11.145842 45.236633
-6.2676811 10.918105 44.327618
-5.7192411 10.754432 43.473457
-5.1182389 10.644035 42.666248
-4.6550937 10.376608 41.703583
-4.2704525 10.012587 40.638996
-4.3972645 9.0502968 38.968372
-3.98597 8.6868916 37.878281
-3.5984335 8.2844372 36.739014
-3.2647619 7.8049603 35.509739
-2.6517487 7.6514697 34.610023
-2.6905069 6.6852989 32.844097
-3.0654106 5.2648678 30.565817
-20.397156 7.1065435 53.777721
-18.627348 8.0446138 53.721188
-16.771008 9.0837669 53.762737
-8.7868881 15.841661 58.121098
-8.1070023 15.891003 57.53133
-7.4608793 15.909392 56.918793
-6.8154182 15.927591 56.306568
-6.1704292 15.945773 55.694786
-4.6935925 16.785231 55.751122
-3.73351 17.129416 55.419647
-2.7955637 17.45993 55.08535
-1.8342924 17.822834 54.786877
-1.104845 17.954529 54.297951
-0.50374985 17.954695 53.697159
-0.23409271 17.601614 52.782646
-5.7746482 10.962547 46.197742
-5.3275671 10.698126 45.267727
-4.8172722 10.49654 44.389259
-4.5289907 10.039282 43.265854
-4.1636171 9.6569815 42.202251
-3.7446384 9.325695 41.178219
-3.320693 8.9904842 40.142052
-3.630116 7.7701139 38.222614
-3.0269852 7.618186 37.342003
-2.5923758 7.2542706 36.242744
-2.3576279 6.6292753 34.86652
-19.451286 6.732872 54.534988
-17.501062 7.8635855 54.604301
-16.131653 8.4756289 54.328041
-14.598413 9.2575178 54.191311
-7.5886207 15.317545 58.005154
-6.7158098 15.55846 57.56263
-6.0751734 15.576832 56.954807
-5.4351826 15.595011 56.347286
-4.7956629 15.613171 55.7402
-4.1565933 15.631326 55.13356
-3.5178185 15.649641 54.527496
-1.7053461 16.897705 54.944153
-0.7527113 17.266125 54.649544
-0.31098461 17.09502 53.90221
-0.15625 16.606594 52.875114
-4.957015 10.631487 47.003918
-4.5524607 10.319898 46.042843
-4.3217621 9.8021545 44.887417
-4.1273284 9.2279205 43.667362
-3.8265734 8.7613287 42.533245
-3.4051943 8.4240551 41.509468
-3.2934351 7.7042961 40.112167
-3.1732321 6.9731321 38.686058
-3.1157751 6.1417913 37.143768
-18.468708 6.4135456 55.313095
-16.821331 7.2873154 55.192101
-14.993578 8.3542576 55.228184
-13.57372 9.0510416 55.025536
-12.344526 9.5774708 54.715954
-11.24434 9.9885635 54.333908
-5.345715 15.23119 57.59359
-4.71066 15.249357 56.990273
-4.0758753 15.267693 56.38752
-3.4417334 15.285833 55.785065
-2.8080339 15.303964 55.183041
-1.4872103 16.057985 55.179413
-0.69338322 16.260441 54.73925
-0.19197655 16.146967 54.039619
0.056153297 15.748302 53.095062
-0.55175495 14.372086 51.29887
-4.145226 9.5393581 46.450077
-3.9092464 9.0162554 45.300293
-3.7069502 8.4384785 44.088676
-3.4887524 7.8628788 42.864971
-3.4551411 7.0464811 41.405201
-3.7368798 5.8175073 39.540051
-17.480873 6.1210437 56.091812
-15.483818 7.3573656 56.207386
-14.018644 8.1025534 56.015594
-12.57184 8.8472824 55.841385
-11.37096 9.3636274 55.522839
-10.339743 9.7205582 55.101547
-9.2341013 10.162663 54.751373
-4.0872154 14.814575 57.553696
-3.3666859 14.927031 57.02533
-2.7373743 14.945164 56.427002
-2.1085119 14.963284 55.829102
-1.3124237 15.164745 55.377277
-0.66882515 15.202597 54.798355
0.032384872 15.306171 54.274136
0.35639191 14.983164 53.398174
1.060214 15.089583 52.876202
-3.6687794 8.8403769 46.926521
-3.4831343 8.2471361 45.727146
