# .PCD v0.7 - Point Cloud Data file format
VERSION 0.7
FIELDS x y z
SIZE 4 4 4
TYPE F F F
COUNT 1 1 1
WIDTH 1609
HEIGHT 1
VIEWPOINT 0 0 0 1 0 0 0
POINTS 1609
DATA ascii
159.98038 5.0257759 43.265442
159.86151 5.9675589 44.679214
160.19446 6.2443352 45.84161
158.99866 8.6919527 47.71529
159.02289 9.3762512 48.967075
159.04649 10.049805 50.198719
159.00436 10.803193 51.437202
158.96092 11.545833 52.654106
158.9339 12.253747 53.843361
159.00591 12.816065 54.97776
159.23857 13.153627 56.043354
159.50613 13.439266 57.088562
159.8 13.685583 58.118088
160.1015 13.918018 59.138664
160.40144 14.14879 60.153183
160.55905 14.559481 61.194923
160.61131 15.098575 62.248451
160.9975 15.205442 63.220287
161.54713 15.104718 64.15918
162.07127 15.037416 65.105026
162.76819 14.756725 66.026649
166.76784 10.412449 66.512253
168.10556 9.9996872 68.502747
168.43057 10.212032 69.535797
168.73248 10.448931 70.565063
161.09587 0.52312279 41.205612
160.14729 2.7685122 43.138329
159.92682 3.8954535 44.627289
159.69492 5.0192761 46.087669
158.88631 6.9626446 47.785557
158.82622 7.792469 49.089569
158.8371 8.5065126 50.338707
158.86224 9.1881552 51.561119
158.8248 9.9462833 52.787868
158.80241 10.670675 53.987255
158.81451 11.335352 55.154018
158.89578 11.894213 56.279381
158.97594 12.445435 57.389366
159.05501 12.989183 58.484291
159.33868 13.250402 59.509106
159.68196 13.428335 60.511803
160.02347 13.605768 61.510063
160.36368 13.782113 62.503807
160.70215 13.957973 63.493172
161.03909 14.133052 64.478134
161.37479 14.307054 65.458679
162.32886 13.695095 66.34407
164.22005 11.914323 67.123489
165.82178 10.521423 67.981796
166.38226 10.438771 68.977676
166.51019 10.889039 70.011169
166.90602 11.005817 71.015465
167.43532 10.959207 72.009979
168.13 10.714382 72.999649
169.18677 10.040783 73.987602
160.86879 1.2606249 45.509468
159.10617 4.6943388 47.700039
158.8956 5.7781563 49.093521
158.76172 6.7309628 50.42255
158.70367 7.557353 51.693153
158.67744 8.3238573 52.927727
158.66808 9.0533009 54.134281
158.6749 9.7475777 55.314613
158.70282 10.400688 56.468616
158.78508 10.96747 57.587898
158.87807 11.510143 58.688461
159.13103 11.82531 59.731556
159.36102 12.166512 60.771774
159.55261 12.553906 61.811619
159.74236 12.937584 62.841488
160.00124 13.223698 63.847786
160.34016 13.400198 64.832428
160.67735 13.576216 65.812737
161.88539 12.623412 66.664497
163.67882 10.933988 67.46714
164.3343 10.719387 68.437363
165.06857 10.408436 69.405678
165.25206 10.793068 70.424423
165.54199 11.039436 71.427002
166.03914 11.026078 72.413879
166.57825 10.961415 73.39978
166.94044 11.11319 74.390121
167.40901 11.134144 75.376633
168.49146 10.417809 76.37072
159.40068 2.2434053 47.580082
159.201 3.3503885 48.992901
158.99704 4.4442129 50.375412
158.78902 5.5248537 51.728065
158.63887 6.5017099 53.027725
158.58897 7.3157248 54.263443
158.54446 8.1080561 55.474495
158.54675 8.8199615 56.648449
158.59076 9.4606876 57.790184
158.75331 9.9238186 58.880901
159.00946 10.248583 59.934387
159.26363 10.570807 60.979645
159.51579 10.890522 62.016747
159.70935 11.28495 63.057571
159.89944 11.677763 64.088715
160.08794 12.066494 65.109894
160.3019 12.415237 66.117081
161.4377 11.541537 66.987976
162.93678 10.205471 67.837006
163.28004 10.392391 68.840919
163.94136 10.16618 69.811996
164.08543 10.60557 70.826195
164.28139 10.972431 71.826614
164.72485 11.021686 72.807861
165.14438 11.10018 73.788528
165.4787 11.283386 74.768204
165.98024 11.257668 75.744202
166.62338 11.058904 76.723473
168.44153 9.4344559 77.746552
159.17365 2.1775866 50.355114
158.97827 3.2767749 51.723228
158.78784 4.3491974 53.058395
158.64276 5.3353491 54.347149
158.53601 6.2478657 55.595493
158.49184 7.0531683 56.798714
158.44823 7.843926 57.979767
158.62608 8.3027153 59.077446
158.88551 8.6374321 60.141552
159.14288 8.9695034 61.19725
159.39824 9.298954 62.244621
159.6516 9.6258183 63.283768
159.86809 9.9982748 64.321297
160.05876 10.400122 65.353577
160.3192 10.700766 66.365044
161.12444 10.262361 67.295982
162.04596 9.6753082 68.224365
162.29169 9.9941053 69.235092
162.90372 9.8256702 70.20726
163.03558 10.28721 71.215988
163.19881 10.701084 72.211838
163.44102 11.007042 73.194824
163.82597 11.12611 74.167549
164.28722 11.146698 75.137032
164.83231 11.06146 76.106857
165.43701 10.903011 77.080154
166.98801 9.5733566 78.094238
158.95041 2.1124096 53.086758
158.80673 3.1316013 54.394352
158.6815 4.1050968 55.667675
158.55896 5.0576372 56.913589
158.43903 5.9898882 58.132957
158.65456 6.4129581 59.234406
158.88306 6.8099656 60.32127
159.10944 7.2033391 61.398167
159.33353 7.5934515 62.465286
159.55582 7.9796829 63.522652
159.789 8.3442287 64.5681
160.0291 8.6931734 65.603111
160.33696 8.9424782 66.619339
160.82971 8.933342 67.6054
161.37973 8.8461418 68.585251
161.57549 9.2402105 69.601051
161.93457 9.4086113 70.594322
162.07423 9.8670216 71.597198
162.23431 10.291368 72.588066
162.40298 10.69795 73.568504
162.7991 10.801928 74.535896
163.21492 10.878885 75.500839
163.84435 10.680438 76.467331
164.70976 10.184189 77.445641
158.96092 1.6929154 55.698875
158.84724 2.6677346 56.962891
158.73598 3.6218686 58.200081
158.86185 4.2031178 59.346931
159.04813 4.6843972 60.46312
159.23213 5.1608191 61.567276
159.4144 5.6317582 62.659481
159.59734 6.093843 63.739456
159.82042 6.4904351 64.800514
160.04147 6.8834004 65.851883
160.39284 7.0853043 66.874855
160.76291 7.2576571 67.89048
160.71117 8.015295 68.947205
160.90987 8.4144859 69.962753
161.0807 8.845602 70.97068
161.20152 9.3380556 71.971092
161.3439 9.7937069 72.958878
161.50533 10.216808 73.935394
161.92014 10.296401 74.89962
162.45583 10.215242 75.862755
163.02524 10.091149 76.828499
164.14326 9.2556343 77.817184
162.89345 -4.8010883 57.147652
159.12541 1.8414621 59.450039
159.30942 2.3508558 60.586823
159.47865 2.8737526 61.71386
159.64569 3.3909931 62.827961
159.81082 3.9023004 63.929295
159.97308 4.409205 65.018242
160.15938 4.872622 66.090775
160.53438 5.0552988 67.125809
160.62537 6.3498521 69.250153
160.51834 7.1968331 70.301888
160.93477 7.2970009 71.297424
160.57257 8.4776173 72.330978
160.62482 9.0682316 73.32196
160.79713 9.485363 74.296783
161.23705 9.5328217 75.261009
161.7791 9.4419641 76.225388
162.54198 9.0573616 77.197952
164.08675 7.641417 78.212738
162.25862 -5.9750433 57.506538
161.40295 -3.7544546 59.01963
160.94127 -2.1862335 60.377758
160.84209 -1.2046537 61.61314
159.7653 1.2550173 63.02729
159.93227 1.7866087 64.144379
160.09731 2.3120551 65.248535
160.34138 2.7107902 66.327713
160.81615 5.6739535 71.62886
160.41396 6.9433041 72.670296
160.23888 7.8727951 73.675339
160.26715 8.5036268 74.656097
160.60127 8.7008371 75.623123
161.24516 8.4692192 76.591347
162.74884 7.0685024 77.593925
161.61914 -7.1576128 57.868042
160.95236 -5.1872663 59.331371
160.90068 -4.2307835 60.593964
160.91446 -3.3944874 61.817635
161.37508 -3.2712784 62.928947
162.37962 -3.9929943 63.93655
160.1857 6.1784544 74.024796
160.17285 6.8889551 75.014534
160.67839 6.8551636 75.992599
162.0567 5.5975585 76.992851
160.96184 -7.4037981 59.525238
160.97542 -6.5192604 60.787884
161.09846 -5.8270626 62.004196
162.09517 -6.5429821 63.028126
163.50662 -7.9030199 63.994709
162.10774 -12.567928 58.100456
160.67949 -9.1943913 59.80022
160.92398 -8.6650352 61.018326
161.56007 -8.790699 62.138409
160.42879 -11.083733 60.071091
160.52126 -10.273872 61.336777
161.1637 -10.40579 62.46553
160.2708 -13.184814 60.323009
160.27818 -12.196447 61.622047
161.60686 -13.503687 62.621254
164.42644 -23.095444 59.510941
161.03473 -15.948267 61.686344
163.44136 -23.975983 59.991562
162.46634 -21.064068 61.613983
163.9899 -28.956253 58.637024
163.68579 -27.168575 60.176613
162.52383 -23.818039 61.860325
162.66118 43.119633 59.567749
163.10454 43.199615 60.32061
163.60139 43.253895 61.027489
162.33115 42.683029 60.99493
162.90245 42.702419 61.638966
163.68839 42.622543 62.125267
161.98558 41.971199 61.342491
162.58087 41.979713 61.968765
163.29617 41.931107 62.50721
162.23386 41.268646 62.317535
162.94907 41.218685 62.856331
161.94862 40.526009 62.62056
162.70909 40.452187 63.127945
163.90439 40.1633 63.332939
162.96468 38.77066 60.859486
161.76784 39.726826 62.846573
162.5885 39.620667 63.313721
163.72769 39.353474 63.563202
173.18684 16.534815 2.2261581
162.22696 38.240616 61.506287
161.58603 38.9231 63.073875
162.46698 38.782825 63.500916
167.53363 16.923199 2.7621269
168.58372 16.889622 3.7066002
169.95973 16.598495 4.1666832
171.83466 15.925635 3.9247208
162.23311 37.307026 61.591106
161.55231 38.032482 63.192669
162.34456 37.938595 63.689529
164.32195 16.290657 2.3422699
165.37901 16.240875 3.2470093
166.43797 16.191004 4.1533699
167.8725 15.831211 4.4869499
169.7121 15.151054 4.2453117
171.59329 14.457116 4.0031128
173.50775 13.756603 3.7740517
162.22945 36.36779 61.684376
161.52129 37.130642 63.310486
162.56332 36.895893 63.634212
161.28696 15.562652 1.7269516
162.07414 15.748106 3.066288
162.4935 16.256615 4.9996147
163.61469 16.131519 5.7483635
165.71545 15.161125 4.9600067
167.59366 14.409965 4.6017952
169.46202 13.689357 4.3247185
171.34399 12.978544 4.0904045
162.43256 35.295792 61.623428
161.48474 36.222061 63.43338
162.74602 35.856617 63.606628
160.42081 14.697396 2.8152275
161.04976 15.03192 4.4136047
162.00653 15.053957 5.4342384
162.34993 15.631235 7.4505424
162.78012 16.113243 9.2775536
163.22284 16.56963 11.042824
164.39493 16.380959 11.668163
165.87209 15.937652 11.860668
161.63034 34.812935 62.31778
161.57425 35.228203 63.465088
163.03552 34.737591 63.50462
160.85329 13.543315 4.3445549
161.47777 13.886684 5.9379082
161.845 14.459179 7.920517
162.2086 15.017177 9.8586006
162.62106 15.513904 11.672661
163.02994 15.998842 13.449856
163.44751 16.461723 15.173519
163.86414 16.911873 16.860306
165.08714 16.661926 17.378059
166.61317 16.164593 17.500788
161.36009 34.014118 62.612881
161.75613 34.163643 63.43082
163.40378 33.550636 63.348778
161.42641 12.251676 5.6386757
161.30412 13.318625 8.4487038
161.66988 13.890977 10.387466
162.00175 14.47714 12.330313
162.41667 14.969395 14.098103
162.83243 15.446123 15.824066
163.248 15.908937 17.51161
163.66002 16.361395 19.167124
164.02927 16.837788 20.845657
164.53252 17.186642 22.307676
166.01128 16.706955 22.468098
167.48799 16.242161 22.667404
161.71024 32.401993 61.302105
161.09421 33.209362 62.905003
161.9308 33.086384 63.403599
163.78064 32.335342 63.189331
161.99422 10.961565 6.9530449
161.77243 12.140718 9.888752
161.42863 13.399822 12.916521
161.74324 14.000093 14.838518
162.18028 14.468657 16.530247
162.61838 14.922277 18.183033
163.06317 15.35655 19.790707
163.42076 15.855657 21.484776
163.85747 16.271313 23.034498
164.17685 16.776451 24.706533
165.57277 16.352043 24.965977
166.936 15.966645 25.29723
160.72772 32.04459 62.141754
160.82762 32.401726 63.19799
162.1088 31.989655 63.375732
164.11259 31.125046 63.064323
162.2691 10.933572 11.288464
161.9314 12.203391 14.264717
161.52448 13.500431 17.242813
161.96094 13.96648 18.895569
162.39561 14.420384 20.514835
162.81667 14.873455 22.118309
163.25789 15.295371 23.660654
163.40944 15.961929 25.551788
163.71748 16.47316 27.194044
164.16997 16.845879 28.619247
165.57834 16.396236 28.854137
166.95688 15.983665 29.155949
161.89149 29.804317 60.159657
160.45566 31.227512 62.438072
160.55992 31.591442 63.492119
162.25125 30.898682 63.375481
164.13913 30.091873 63.157745
169.13371 3.3884287 2.9413719
162.38921 11.048689 15.68688
162.02301 12.322762 18.562309
161.91202 13.316236 20.979015
162.67813 13.459131 22.108688
162.545 14.427734 24.439989
162.7365 15.073366 26.274158
162.93588 15.693724 28.051918
163.27054 16.177202 29.616692
163.56491 16.682568 31.196869
164.18376 16.895065 32.356377
165.55643 16.461914 32.626984
166.95825 16.015747 32.893616
160.9055 29.447037 61.014133
160.21991 30.381882 62.707069
160.46457 30.65976 63.658737
162.2576 29.882992 63.475426
164.15761 29.050877 63.258286
164.13536 3.3855553 2.2558174
165.36662 3.2001152 3.0269775
166.64513 2.9715624 3.7383995
167.8439 2.8317051 4.5901871
169.86073 1.87292 4.2281303
171.89993 0.92129898 3.9062195
162.49469 11.168962 19.92688
161.73476 12.79923 23.211884
161.81766 13.583227 25.239988
162.01311 14.239517 27.063782
162.22433 14.86263 28.821045
162.48813 15.420582 30.469189
162.7756 15.941901 32.05014
163.07901 16.434948 33.576874
163.38808 16.909821 35.064167
164.21165 16.929848 35.937428
165.5554 16.508083 36.23473
166.93977 16.063225 36.515324
161.30276 27.630219 59.577686
159.80893 29.189659 61.953049
160.03278 29.497055 62.939575
160.53743 29.60083 63.701721
162.26668 28.85268 63.574699
164.17635 27.996521 63.360115
160.77161 2.9003983 1.8867188
161.83987 2.8736944 2.8903694
162.16551 3.6668091 5.1354942
162.55374 4.3659554 7.215786
163.14542 4.8253822 8.9193687
163.98367 5.0112686 10.2075
164.81728 5.1961308 11.488506
161.68237 12.173253 25.239599
161.28487 13.420599 27.860918
161.49866 14.054682 29.609314
161.67914 14.701895 31.356165
161.99965 15.20245 32.88813
162.29138 15.715335 34.421139
162.60599 16.193882 35.893921
162.89955 16.67819 37.359596
163.15103 17.186317 38.840855
164.39882 16.825741 39.215973
165.76711 16.372293 39.486832
167.15561 15.913431 39.764801
160.39044 27.228729 60.384846
159.60071 28.304806 62.199425
159.84444 28.606602 63.173561
160.61139 28.525963 63.74535
162.30589 27.787918 63.653641
164.19531 26.928562 63.463261
160.41875 1.401022 2.047245
160.77521 2.1989384 4.2878571
161.68089 2.34764 5.5446815
162.0995 3.0340853 7.5842285
162.49287 3.7257776 9.6109276
162.84792 4.4365768 11.644402
163.30618 5.0153351 13.469316
164.11555 5.2092524 14.736591
164.92023 5.4020443 15.996521
165.93739 5.3737268 16.946815
167.06363 5.2373829 17.751093
161.66132 11.525988 27.198341
160.75096 13.278822 30.427031
160.89513 13.974115 32.21302
161.1786 14.518654 33.782333
161.51221 15.001534 35.256187
161.83585 15.480369 36.710518
162.13835 15.965402 38.158348
162.37395 16.497223 39.649757
162.62088 17.005114 41.095997
163.75844 16.725971 41.574413
165.067 16.307287 41.89431
166.92654 15.432495 41.688179
159.60057 26.75272 61.09314
159.39107 27.414951 62.447392
159.65491 27.710468 63.409046
160.68646 27.434795 63.789646
162.38071 26.682934 63.708488
164.23337 25.833168 63.554565
162.04308 1.2388277 7.2998314
162.02545 2.4217515 10.00824
162.40482 3.1267819 12.012325
162.72644 3.8721972 14.05175
163.03375 4.6095514 16.058285
163.4135 5.2476196 17.908443
164.30673 5.332365 18.996971
165.32713 5.2843361 19.906691
166.349 5.2362418 20.817734
161.55876 10.968445 29.237263
160.1454 13.226673 33.027958
160.35326 13.854677 34.683029
160.69296 14.339522 36.14006
161.04836 14.796286 37.548058
161.2579 15.375829 39.093143
161.60428 15.814715 40.450932
162.26375 15.959498 41.444054
163.26923 15.792394 42.064434
163.98935 15.880429 42.987431
164.70061 15.973915 43.914127
166.50174 15.131056 43.772903
159.33467 25.883202 61.383995
159.18079 26.519459 62.69635
159.46417 26.808594 63.646034
160.7627 26.32695 63.834618
162.45645 25.561459 63.764313
164.27791 24.718399 63.64296
162.89302 -0.43189478 8.2692566
161.88983 1.8906665 12.490709
162.25323 2.6102409 14.472805
162.58954 3.3368144 16.443544
162.89655 4.072454 18.40538
163.34898 4.6303506 20.11282
164.2944 4.6534605 21.110229
165.38689 4.5236883 21.910786
166.48361 4.3934131 22.714447
161.36539 10.512415 31.361025
159.58578 13.14962 35.513855
159.88785 13.679568 37.008045
160.24673 14.140093 38.402893
160.55724 14.633978 39.82439
160.87955 15.10346 41.202805
161.54141 15.246481 42.186398
162.22261 15.368096 43.141178
162.9314 15.461716 44.060555
163.65556 15.539267 44.959175
164.39433 15.60202 45.839119
165.55797 15.294912 46.311913
161.47653 22.524055 58.492546
159.39732 24.747299 61.414555
159.33063 25.333927 62.667477
159.32843 25.857109 63.842194
160.84009 25.202045 63.88028
162.53333 24.422974 63.820984
163.71765 24.044491 64.153908
163.0686 -0.13629723 12.933805
162.12338 2.0817618 16.860207
162.51135 2.7482805 18.71209
162.96248 3.3250265 20.429958
163.86806 3.394536 21.488197
162.97922 5.3662462 24.929914
163.63663 5.6629124 26.238907
164.28819 5.9569354 27.536251
160.9761 10.267294 33.691193
159.51175 12.60574 37.362877
159.43916 13.505068 39.265537
159.8063 13.951571 40.613342
160.28308 14.280635 41.81287
160.51009 14.837494 43.26292
161.1889 14.957254 44.204784
161.91122 15.033765 45.095142
162.63512 15.106875 45.97961
163.26764 15.260256 46.949013
164.20209 15.141769 47.623215
165.67052 14.55809 47.809696
160.58569 22.101746 59.29335
159.56424 23.509483 61.363777
159.48322 24.126568 62.638077
159.78697 24.422863 63.592602
160.9187 24.059681 63.926655
162.22293 23.569996 64.155373
163.25404 23.30167 64.597153
162.88612 0.54764366 17.919205
162.60873 1.9733438 20.699785
162.41789 3.2595167 23.26763
162.47508 4.236783 25.420954
162.47577 5.2454128 27.585035
162.86716 5.8117523 29.191162
163.51021 6.0997639 30.45196
160.57713 10.047911 35.987225
159.35313 12.156285 39.285458
159.59752 12.741633 40.785355
159.84979 13.303185 42.242092
159.97958 13.968377 43.798649
160.21042 14.519089 45.210697
160.91557 14.607187 46.104805
161.07428 15.202522 47.540451
161.62634 15.420502 48.560051
163.05345 14.837708 48.737125
164.5101 14.242966 48.918133
165.59871 13.989162 49.462353
166.62924 13.792395 50.070835
159.92439 21.504055 59.906639
160.13687 21.911873 60.993851
159.64186 22.894112 62.605637
160.25867 22.947006 63.335892
161.32808 22.633629 63.733147
161.96132 22.675129 64.455399
162.97572 22.415031 64.911911
163.42172 0.39456844 21.683636
161.98747 3.0867467 25.889668
162.06175 4.0406265 27.962385
162.05013 5.0591545 30.084631
162.11502 5.9662657 32.049988
162.73001 6.2690792 33.299385
159.24324 10.812906 39.332218
159.30287 11.606607 41.054703
159.37158 12.369219 42.721138
159.58069 12.971529 44.192116
159.90094 13.448685 45.512035
160.22006 13.914244 46.806549
160.31363 14.582952 48.301094
160.58978 15.062312 49.581539
160.84802 15.546109 50.853355
162.11484 15.091286 51.167297
163.16788 14.841709 51.69746
164.15924 14.65353 52.294575
165.07838 14.533844 52.962959
165.84898 14.546918 53.760952
159.8895 20.37501 60.011688
159.95027 20.925495 61.225761
160.00998 21.464142 62.413956
160.5144 21.619362 63.243584
161.19601 21.624901 63.936802
161.87727 21.630611 64.63002
162.74808 21.48329 65.192177
164.42653 -1.4118643 22.43726
161.57411 2.9121075 28.435114
161.6241 3.8882289 30.483007
161.54877 4.9724464 32.626839
161.45731 6.0424814 34.725521
159.13168 9.4526901 39.379879
159.19389 10.268419 41.11171
159.25352 11.06407 42.799873
159.31499 11.835995 44.441307
159.56606 12.396696 45.840015
159.27205 13.482135 47.76767
159.56088 13.969402 49.053841
159.84494 14.448589 50.318687
160.11214 14.931503 51.574306
160.37074 15.410228 52.812759
160.75526 15.760077 53.913353
161.31235 15.943092 54.845028
162.05309 15.955334 55.610825
162.7935 15.967573 56.376293
160.28745 18.848818 59.76754
159.91571 19.797977 61.338539
159.97594 20.352139 62.533009
160.42772 20.559425 63.409061
161.11267 20.565287 64.106018
161.79749 20.571148 64.802818
162.62259 20.461163 65.402809
161.10522 2.8172126 30.998997
161.092 3.8584843 33.06831
161.02559 4.9278383 35.140614
160.93495 5.9926224 37.17955
159.07468 8.9227638 41.179558
159.1389 9.7379608 42.874168
159.15396 10.581768 44.576851
159.22546 11.344543 46.173901
158.61925 12.773605 48.425816
158.81546 13.36223 49.799271
159.10423 13.844047 51.051678
159.38333 14.322818 52.288311
159.65672 14.794827 53.505722
160.02295 15.166759 54.615822
160.43555 15.485945 55.666786
160.84329 15.801764 56.706161
161.24672 16.113842 57.733749
161.64566 16.422466 58.749947
159.88071 18.656342 61.45274
159.94168 19.226179 62.653389
160.3399 19.488583 63.576424
161.02846 19.494598 64.277
161.71684 19.500616 64.977425
162.57782 19.361008 65.559174
165.52357 17.486439 64.755806
160.59113 2.7915812 33.564194
160.56773 3.8384104 35.586964
160.53212 4.8683572 37.564495
158.99821 7.5118608 41.197662
159.10619 8.3053541 42.856609
159.14137 9.154274 44.551125
158.93546 10.23331 46.454319
158.48126 11.540519 48.555229
158.44621 12.383816 50.16851
158.38158 13.234682 51.766998
158.65952 13.72196 52.997379
158.96254 14.172007 54.180077
159.3286 14.549385 55.28376
159.71248 14.900187 56.353333
160.1225 15.217533 57.383652
160.52776 15.531561 58.40271
160.92876 15.841916 59.410339
159.84528 17.500298 61.568371
159.90701 18.086168 62.775261
160.28938 18.372419 63.717148
160.94356 18.412476 64.449631
161.65877 18.398445 65.137405
162.53275 18.247938 65.717201
163.64355 17.899025 66.146011
160.09146 2.7673092 36.055412
159.22908 4.7640953 39.008099
159.13713 5.8381343 40.968216
159.10083 6.8199282 42.807739
159.22247 7.601778 44.42318
159.38718 8.315567 45.951656
158.3139 10.323484 48.714706
158.33963 11.126719 50.275101
158.27614 12.00069 51.881424
158.21446 12.849827 53.442112
158.27417 13.554809 54.848755
158.64314 13.934584 55.943321
159.00731 14.309442 57.023705
159.40845 14.639153 58.054779
159.81592 14.95466 59.065063
160.21869 15.266911 60.064426
159.80939 16.32959 61.685474
159.87189 16.93185 62.898666
160.26234 17.221073 63.841698
160.85756 17.319107 64.624229
161.60823 17.276482 65.293457
162.62071 17.004349 65.785995
163.326 17.005705 66.493881
159.77675 2.5447917 38.274193
159.26891 4.1396894 40.745426
159.18008 5.2141919 42.663624
159.13794 6.2060757 44.474194
158.14314 8.2187862 47.238884
158.14484 9.0942192 48.875786
158.17314 9.9173431 50.441586
158.16946 10.752144 51.997204
158.10895 11.624054 53.565308
158.08635 12.434162 55.055885
158.1767 13.108648 56.406094
158.33058 13.70226 57.668762
158.70125 14.066325 58.719463
159.11067 14.383472 59.721268
159.51559 14.697159 60.712128
159.92174 15.00209 61.687836
159.83612 15.76315 63.023792
160.23495 16.055046 63.967842
160.77066 16.21413 64.80069
161.55688 16.141613 65.451477
162.05356 16.331182 66.302231
163.05579 16.066921 66.81086
159.92236 1.7945228 39.922558
159.32246 3.5057211 42.447956
159.19824 4.6246767 44.367367
158.92619 5.8785114 46.3853
158.06462 7.7519999 48.945435
158.00478 8.6961432 50.609951
158.03468 9.5177746 52.140461
158.0022 10.383947 53.689941
157.98463 11.211607 55.183998
158.02834 11.954134 56.583839
158.12735 12.620914 57.900642
158.22418 13.272994 59.188416
158.45735 13.772524 60.333923
158.89986 14.053144 61.288948
159.33832 14.330853 62.234615
159.77258 14.605902 63.171223
160.2025 14.878535 64.099075
160.62856 15.148376 65.017944
161.05035 15.415874 65.928314
161.70544 15.462934 66.669342
162.78438 15.123987 67.129234
166.49342 12.431009 65.919884
159.53087 2.6967883 43.963886
159.25818 3.9935603 46.007313
158.17587 6.1732292 48.818058
157.98724 7.2919121 50.62748
157.91515 8.2513638 52.26902
157.8942 9.1292534 53.816048
157.88173 9.9747066 55.313622
157.88914 10.776909 56.753819
157.97968 11.471297 58.084579
158.07904 12.138826 59.37619
158.36275 12.601295 60.485912
158.6057 13.093355 61.607712
158.81874 13.603092 62.731182
159.18454 13.950176 63.716892
159.6162 14.224921 64.639252
160.04355 14.497267 65.553047
160.4671 14.766846 66.458084
161.43208 14.522247 66.986191
162.51154 14.177082 67.449165
165.54741 12.045947 66.678673
160.01625 1.5645695 45.178017
158.40891 4.4236736 48.565224
158.15819 5.6498594 50.456528
157.91623 6.8324618 52.280441
157.84052 7.7977939 53.89106
157.78314 8.7171335 55.439682
157.78642 9.5464172 56.89164
157.83055 10.310377 58.270317
157.98462 10.938518 59.521687
158.27071 11.412996 60.636639
158.55237 11.880137 61.734341
158.78668 12.383862 62.848606
158.99771 12.898661 63.958931
159.20511 13.404618 65.050179
159.46219 13.849754 66.084869
160.09001 13.925055 66.844238
161.15752 13.57741 67.304451
162.23772 13.225773 67.77037
164.61617 11.666897 67.425629
158.60674 2.6794128 48.34824
158.35828 3.9415121 50.256458
158.11873 5.1583347 52.096218
157.8876 6.3322749 53.871143
157.77826 7.3378038 55.480049
157.72612 8.2531967 56.992126
157.69249 9.1242809 58.44701
157.88913 9.7242498 59.668877
158.1776 10.210998 60.789112
158.46159 10.690159 61.891899
158.74142 11.161705 62.977505
158.96689 11.677397 64.08419
159.1759 12.19722 65.181488
159.38113 12.708338 66.260101
159.83269 12.963537 67.147743
160.88153 12.628606 67.62426
161.96268 12.270229 68.09301
163.63762 11.35269 68.200058
164.5 11.223588 68.841827
165.64043 10.837651 69.322769
165.76768 11.396186 70.404449
166.41991 11.462848 71.170586
167.19452 11.417474 71.867661
168.12918 11.22999 72.481949
158.24591 3.5395005 51.985493
158.01019 4.7541165 53.780319
157.84361 5.8563957 55.456474
157.72105 6.8792558 57.043892
157.66962 7.7955947 58.524345
157.82834 8.4562836 59.787575
158.08363 8.994812 60.943169
158.37 9.4862576 62.051109
158.65192 9.9700708 63.141842
158.92949 10.446424 64.215759
159.14569 10.974612 65.314972
159.35229 11.499823 66.399605
159.66727 11.90299 67.388565
160.62538 11.65457 67.931389
161.68642 11.310422 68.417084
162.66161 11.057928 68.970169
163.81883 10.635715 69.421555
164.10065 11.057489 70.408463
164.39738 11.455772 71.37104
164.88464 11.66766 72.212524
165.60764 11.657576 72.918671
166.50533 11.488384 73.533508
167.26476 11.447563 74.224693
158.13551 3.1434679 53.687439
157.96335 4.2856946 55.383625
157.82072 5.3628945 57.002983
157.68259 6.4062543 58.571465
157.83936 7.0900197 59.84668
158.08722 7.6547699 61.018311
158.3308 8.2097492 62.16967
158.57019 8.7552013 63.30127
158.84123 9.2531538 64.386818
159.11508 9.735857 65.450226
159.3233 10.275274 66.540779
159.6611 10.668091 67.521103
160.43477 10.607429 68.195541
161.36349 10.392059 68.771988
161.76198 10.709412 69.689568
162.74216 10.447201 70.240852
162.93645 10.955307 71.266258
163.19368 11.391472 72.236923
163.60509 11.671314 73.106079
164.34128 11.639547 73.790298
164.94991 11.72714 74.542206
165.56706 11.804994 75.28672
166.27069 11.802462 75.986206
167.69296 11.152544 76.345398
158.11388 2.6492782 55.283306
157.99338 3.7333417 56.89798
157.87659 4.783936 58.462791
157.93846 5.6011877 59.832783
158.13347 6.2459383 61.059792
158.34428 6.8563251 62.247604
158.58517 7.417882 63.387325
158.82193 7.9698086 64.507507
159.05466 8.5123434 65.608627
159.29372 9.0348148 66.683968
159.65483 9.4161539 67.655457
160.24272 9.552537 68.461655
160.80054 9.7166128 69.282074
161.05568 10.184175 70.285614
161.68776 10.262587 71.043205
161.89868 10.757096 72.045647
162.15054 11.200264 73.006844
162.41643 11.619894 73.944412
163.00342 11.722225 74.69519
163.59256 11.820264 75.441254
164.24031 11.861173 76.154488
164.95935 11.835015 76.831665
165.76151 11.733065 77.470627
167.19997 11.05482 77.823479
158.20567 2.0246229 56.758743
158.08424 3.1139383 58.343662
158.08534 4.0302334 59.780098
158.28046 4.6975193 61.020481
158.47197 5.3515425 62.2365
158.66023 5.992444 63.428699
158.84511 6.6208534 64.597954
159.07402 7.1850548 65.710663
159.30911 7.7285738 66.79715
159.6674 8.1264896 67.778763
159.98558 8.5573711 68.771896
160.23947 9.0453739 69.790215
160.49757 9.5175009 70.78788
160.82851 9.9040537 71.724335
161.03391 10.40876 72.720329
161.25882 10.882458 73.687263
161.55362 11.276326 74.599052
162.07498 11.439803 75.37648
162.6153 11.581321 76.138489
163.31238 11.569739 76.817429
164.05258 11.517585 77.475929
164.93329 11.334947 78.070541
166.29175 10.713393 78.455368
158.23505 2.4268894 59.726501
158.43089 3.1167312 60.98
158.62267 3.7932453 62.208977
158.81091 4.4563036 63.413811
158.98849 5.114563 64.600616
159.16153 5.7613039 65.765221
159.35643 6.3676863 66.889809
159.70686 6.7887049 67.885735
159.96638 7.297883 68.925926
159.83968 8.2079172 70.19445
160.63235 8.1247568 70.859627
160.09039 9.4374142 72.3302
160.24731 9.9982071 73.346909
160.45195 10.497445 74.316971
160.83037 10.810057 75.174667
161.36674 10.958085 75.937996
161.98488 11.022167 76.654388
162.63084 11.057689 77.354813
163.41776 10.956417 77.98645
164.47522 10.598985 78.495911
165.81378 9.9835873 78.890976
158.69934 2.2947745 62.241699
158.87979 2.9887176 63.46357
159.05644 3.6691909 64.661438
159.2303 4.3355799 65.835373
159.44177 4.9426594 66.957916
159.79489 5.3763247 67.961868
160.96637 4.8956995 68.412048
159.81966 6.9556332 70.356773
160.55573 6.9369431 71.064781
159.99387 8.3011675 72.550278
159.75833 9.2900238 73.798767
159.87604 9.8884907 74.814621
160.30608 10.152011 75.640137
160.87978 10.263477 76.381119
161.42078 10.405337 77.13501
162.07011 10.436309 77.830833
163.05833 10.133215 78.364182
164.26949 9.6197014 78.804672
165.80931 8.8006887 79.115372
161.73897 -3.8399191 58.465096
160.28146 -1.0602007 61.091381
160.03961 0.18724871 62.682205
159.12579 2.1984787 64.72316
159.30002 2.8856239 65.906891
159.52882 3.4923515 67.027069
160.47427 3.2666674 67.640953
162.44655 1.8899698 67.590668
159.91003 7.1381636 72.764481
159.52589 8.3101101 74.102081
159.48514 9.0905209 75.207855
159.80475 9.4750624 76.092407
160.39368 9.5716295 76.823204
160.99771 9.6505346 77.543167
161.91508 9.410017 78.107185
162.83916 9.168067 78.675797
164.2142 8.4840612 79.045944
166.14586 7.268611 79.19194
160.63509 -4.0082693 59.449795
160.06772 -2.2870741 61.358059
160.08734 -1.3304033 62.753677
160.50452 -0.87929535 63.819687
161.00717 -0.54183674 64.807724
160.14078 1.3998194 66.734039
162.13528 -0.035197735 66.664528
159.49693 7.1004877 74.289558
159.36911 7.9950323 75.448372
159.69461 8.3842354 76.333672
160.18808 8.5870132 77.118805
161.01822 8.4334192 77.728027
161.90149 8.2283363 78.31633
162.811 8.000988 78.898834
164.71382 6.7746487 79.037796
160.19522 -4.9968767 59.896027
160.1165 -3.8589191 61.419849
160.14282 -2.8825808 62.821106
160.64098 -2.5138264 63.838566
161.3385 -2.397315 64.700165
162.37288 -2.6885424 65.324417
159.41122 6.713438 75.603165
159.78165 7.0668325 76.471275
160.30203 7.2505646 77.250412
161.18967 7.0390253 77.840134
162.19012 6.713438 78.38208
163.61671 5.9513721 78.735489
160.14722 -6.5006094 60.026299
160.16638 -5.4584503 61.482529
160.27771 -4.56182 62.830254
160.88731 -4.3157911 63.779114
161.67856 -4.3017054 64.589775
162.70004 -4.5701389 65.241112
161.71466 5.2380095 77.780487
160.21713 -7.0860872 61.54631
160.4239 -6.286253 62.833107
161.22595 -6.2716112 63.65493
162.02771 -6.256979 64.476433
160.14368 -9.702672 60.21653
159.91798 -8.2708101 61.884281
160.61258 -8.098856 62.806263
161.61955 -8.3403263 63.493923
162.38631 -8.2651873 64.360031
160.02394 -11.178727 60.408543
159.73091 -9.6187239 62.135849
160.35181 -9.338172 63.120079
161.71841 -10.060473 63.55125
164.33908 -12.414653 63.123047
159.55634 -10.99993 62.378788
160.11693 -10.624724 63.415314
162.1246 -12.229156 63.387867
159.52704 -12.60538 62.510544
160.2356 -12.421948 63.447006
162.61017 -14.555518 63.170841
160.21628 -15.282142 62.089897
160.53079 -14.505595 63.349426
163.28879 -17.20797 62.818787
160.87787 -16.709042 63.216492
163.38814 -19.089668 62.888878
161.15219 -18.851944 63.141071
163.26653 -20.680401 63.120232
161.66702 -21.405533 62.891052
163.20169 -22.378407 63.312805
163.41797 -27.381607 60.113708
161.66463 -23.217491 63.026993
163.56467 -24.756226 63.202599
161.82265 -26.762402 61.456688
162.58859 -26.524372 62.483967
162.44627 42.071861 60.453484
163.75572 42.51091 61.155426
164.5403 42.498001 60.826176
165.17737 42.348129 60.180084
162.87242 41.587685 61.412979
164.13155 41.999062 62.025818
164.93098 42.004044 61.739204
165.57646 41.862839 61.124767
165.93073 41.430321 59.851208
163.29208 41.110023 62.357983
164.26562 41.272392 62.408821
165.04407 41.256599 62.076481
165.71628 41.136093 61.515789
166.36398 40.984779 60.885361
162.22632 40.012772 62.285744
163.47166 40.42028 62.832867
164.40001 40.544029 62.792721
165.12074 40.470284 62.338951
165.7946 40.345665 61.77618
166.41946 40.164009 61.089836
162.41232 39.318192 62.774174
163.55197 39.635529 63.114418
164.51376 39.793365 63.135582
165.18674 39.66803 62.580059
165.86266 39.53933 62.015324
166.14067 38.981987 60.562984
161.70961 14.797042 3.7261124
163.50027 15.427625 4.5799446
164.91881 15.463319 4.134388
166.40178 15.619652 3.9564743
167.9684 15.95038 4.1690178
169.49338 16.230331 4.2743645
170.8102 16.100819 3.4673424
172.15233 16.013355 2.752552
162.552 38.579514 63.175011
163.61742 38.831314 63.367786
164.50137 38.912193 63.22657
165.19296 38.798042 62.698757
165.87247 38.665199 62.131527
163.48456 15.995934 9.7078629
164.55716 15.50912 8.1606865
165.35631 14.488172 5.4597321
166.75143 14.495163 4.9530563
168.21692 14.64141 4.7475395
169.67062 14.777903 4.5234985
171.12158 14.922721 4.320076
172.56535 15.067111 4.1183281
173.80879 14.741209 2.8855553
162.60289 37.751266 63.408714
163.68317 38.021782 63.622597
164.48883 38.020943 63.3186
165.19017 37.909248 62.800053
165.88235 37.781818 62.248951
164.44893 15.958611 12.854198
165.50932 15.483271 11.368996
165.47241 12.931978 5.5453949
166.88512 12.95737 5.0738029
168.34259 13.076232 4.7992554
169.80122 13.209523 4.557312
171.26097 13.359536 4.353199
172.71449 13.511555 4.1560173
174.02974 13.333864 3.2562943
162.55298 36.814484 63.453751
163.72719 37.183952 63.836128
164.46754 37.11031 63.394554
165.1653 36.986488 62.857227
165.34326 36.27491 61.206093
164.34663 16.383331 17.289074
165.37469 15.921082 15.874352
166.42346 15.457583 14.449081
169.93387 11.622464 4.5935287
162.45969 35.820961 63.419186
163.57407 36.129364 63.669838
164.38889 36.126354 63.357796
165.09181 35.998062 62.816135
162.51945 13.896687 15.873627
165.2254 16.297253 20.062489
166.26596 15.886613 18.782225
167.25557 15.344877 17.236893
162.38586 34.834061 63.423298
163.43553 35.073071 63.534237
164.26691 35.079903 63.236919
164.81194 34.758736 62.354607
165.00146 16.512878 23.768597
166.06812 16.206078 22.721027
167.09125 15.793042 21.465527
167.79582 14.726727 18.950462
162.25929 33.776306 63.330917
163.2823 33.983246 63.372868
164.21173 34.0933 63.250679
164.87253 33.893242 62.591522
164.4532 16.150507 26.263905
165.5155 15.867094 25.282803
166.74463 15.867096 24.821934
167.88005 15.687973 24.027859
168.32593 14.117559 20.631392
162.18886 32.764992 63.345779
163.12309 32.868362 63.202618
164.16411 33.102322 63.28109
164.8535 32.924839 62.666954
163.81445 15.621981 28.385113
165.24493 16.004248 28.614725
166.26308 15.668594 27.560383
167.3047 15.350105 26.53163
168.37955 15.070055 25.567442
168.80946 13.441715 22.143375
165.08064 2.7352886 2.0880089
161.17119 31.631536 63.505859
162.1174 31.738941 63.360855
163.05861 31.845781 63.216621
164.02359 31.986631 63.12989
164.83423 31.944334 62.743332
164.82578 30.862175 60.632828
163.29234 15.27791 30.768709
164.98828 16.140497 31.817608
165.97951 15.80504 30.79073
166.98872 15.476799 29.771193
168.01871 15.162037 28.770203
168.56177 13.836382 25.977314
169.27185 12.745492 23.580345
165.85873 2.4450397 4.7413406
167.26826 2.3128538 3.9546394
168.85596 2.6009998 3.9221306
170.43208 2.8905926 3.8967819
171.78726 2.6137056 2.8478355
161.09152 30.586855 63.522263
162.04488 30.697838 63.376148
162.99316 30.808231 63.230816
163.93642 30.918039 63.086258
164.81482 30.951637 62.820885
164.9359 30.004431 60.971607
163.08456 15.440422 33.929966
164.73616 16.261211 34.873802
165.71104 15.942386 33.901089
166.69194 15.610399 32.901062
167.69177 15.288383 31.912914
168.47621 14.510854 30.13805
168.72635 12.556625 26.322609
169.70299 12.003936 24.903866
166.09763 0.98710346 5.275177
167.61093 1.0895185 4.9027939
169.15094 1.2695208 4.6681519
170.68614 1.4564257 4.4484634
172.21797 1.655571 4.2533417
173.66982 1.6415787 3.6823158
161.04294 29.56447 63.596981
162.01187 29.690004 63.466835
162.95999 29.796211 63.308594
163.90347 29.902021 63.151356
164.81798 29.975912 62.94569
165.12901 29.252026 61.484558
162.73792 15.355034 36.569607
164.46773 16.332689 37.736851
165.43387 16.040165 36.831272
166.41315 15.749933 35.925022
167.38403 15.4216 34.951153
168.35966 15.07642 33.944206
168.82341 13.655247 31.130718
165.86493 4.8058605 15.803654
167.03506 4.3668365 14.549488
167.69798 -0.75780678 4.782692
169.25871 -0.5489254 4.5854454
170.80724 -0.35012817 4.3740463
172.34859 -0.14879513 4.1700516
173.71709 -0.45202732 3.0937195
160.97766 28.50942 63.643822
161.98251 28.674509 63.56617
162.94093 28.789461 63.415085
163.89012 28.898438 63.256634
164.83456 29.006872 63.098988
165.16367 28.284334 61.666409
163.19188 16.554981 41.153152
164.20395 16.392605 40.479458
165.14471 16.095129 39.587715
166.0929 15.789665 38.678703
167.06577 15.507506 37.802673
168.04579 15.217369 36.909504
168.7019 14.250763 34.912079
169.16797 12.803814 32.11557
166.65694 4.701582 18.376551
167.80849 4.2574005 17.139948
160.91132 27.439337 63.691105
161.9344 27.623348 63.632828
162.91914 27.767305 63.51812
163.87662 27.882736 63.363186
164.82678 27.994387 63.204323
165.19716 27.305176 61.846897
161.92619 14.948874 41.227001
163.45143 15.621073 41.843567
164.67908 15.826585 41.746609
165.80515 15.865623 41.393398
166.74242 15.559127 40.500069
167.69647 15.261755 39.616577
168.52824 14.697981 38.307922
169.04199 13.430252 35.873901
169.49734 11.929298 33.049427
167.40033 4.5466824 20.782997
168.55792 4.1513662 19.650017
160.84406 26.354044 63.739059
161.88576 26.558115 63.700607
162.88588 26.717808 63.601177
163.86183 26.853197 63.468872
164.81889 26.969629 63.310932
165.22375 26.306114 62.014149
161.29842 14.372837 42.89362
162.65222 14.769217 43.07
163.96478 15.121318 43.185436
165.26118 15.468885 43.299114
166.21869 15.222444 42.514828
167.17683 14.959296 41.701466
168.28151 14.963825 41.295078
168.84242 13.859365 39.178875
169.37631 12.607084 36.817719
169.71579 10.817365 33.602043
168.04089 4.2085714 22.825756
169.27454 4.0245485 22.045639
160.77594 25.253374 63.787926
161.83633 25.478216 63.769093
162.84343 25.642805 63.668743
163.84064 25.802382 63.56366
164.81093 25.932379 63.418839
165.32184 25.400425 62.331131
165.20186 23.893221 59.837055
160.82776 14.040607 44.879295
162.1429 14.390255 44.975201
163.44215 14.735481 45.069607
164.74869 15.116308 45.221256
165.82706 15.11117 44.808262
166.68529 14.694061 43.783794
167.56866 14.295074 42.780422
168.46344 13.888551 41.760086
169.36285 13.459476 40.70002
169.67094 11.706619 37.631611
167.34993 3.8278437 25.229187
168.47054 3.4130483 24.110237
169.78824 3.4492979 23.677221
160.70485 24.134235 63.833954
161.77927 24.374166 63.825764
162.80049 24.553267 63.737457
163.80745 24.721661 63.636887
164.79599 24.872473 63.514301
165.44673 24.528473 62.704445
165.10475 22.643841 59.732571
162.12637 14.80325 47.95208
162.96243 14.412035 46.995068
164.19073 14.674136 46.965645
165.33022 14.794892 46.737026
166.27913 14.57159 46.013908
167.13466 14.153472 45.005341
168.0027 13.729225 43.982006
168.88354 13.29873 42.943588
169.78568 12.879451 41.915642
169.9646 10.809057 38.442886
168.4335 4.5708289 28.755505
168.89479 2.6226649 25.377932
170.03134 2.2135363 24.278782
160.17198 22.383087 63.064381
161.71715 23.248611 63.875492
162.77689 23.476727 63.844604
163.84578 23.730091 63.850853
164.77782 23.794483 63.604828
165.47102 23.498764 62.869827
165.29367 21.822105 60.242733
161.86011 14.793398 50.2384
162.7281 14.486504 49.419903
163.60545 14.176308 48.592598
164.59116 14.037783 48.000462
165.75372 14.213633 47.84705
166.72485 14.03919 47.202671
167.55875 13.582973 46.157074
168.40323 13.11421 45.087353
169.14966 12.401785 43.662949
169.67416 11.143798 41.445293
168.3416 5.5239849 32.916588
169.22639 4.715405 31.28583
169.08693 1.2695227 25.802237
161.36304 21.699375 63.395905
163.00468 22.747852 64.425751
164.02951 22.943104 64.3479
164.8912 22.902023 63.960331
165.20253 22.001858 62.430954
165.48274 20.999762 60.753277
162.46802 14.502844 51.68795
163.33041 14.198637 50.887192
164.2021 13.891437 50.078251
165.08308 13.580956 49.260681
165.97337 13.266915 48.434029
166.94577 13.090033 47.791832
167.82687 12.716889 46.875881
168.48459 11.850058 45.268932
169.1619 10.957822 43.614769
169.60414 9.4630203 41.103127
169.0273 5.4465308 35.016273
169.75421 4.2733636 32.902641
168.90648 -1.0522223 24.862976
161.46802 20.77343 63.755291
163.17055 21.930248 64.890617
164.06015 21.924988 64.548996
164.92598 21.882683 64.15947
165.38815 21.195747 62.93293
165.67184 20.176615 61.263962
163.30443 14.625548 53.6404
164.08342 14.201282 52.6978
164.94543 13.898885 51.910927
165.8165 13.593315 51.115795
166.69664 13.284286 50.311958
167.58623 12.972214 49.499908
167.93175 11.518387 47.141262
168.54803 10.532163 45.398037
169.18483 9.5135784 43.597511
169.53217 7.7426019 40.751904
169.66663 5.3070078 36.967079
170.31607 3.9495077 34.642166
161.54855 19.806177 64.071274
163.21371 20.927109 65.126404
164.09097 20.89666 64.751846
164.96123 20.853451 64.360802
165.57401 20.389233 63.435493
165.8613 19.353218 61.775505
166.16078 18.275642 60.048672
164.99234 14.521896 54.862526
165.76625 14.09012 53.925415
166.55171 13.651596 52.973854
167.39746 13.301119 52.131615
168.15695 12.75062 51.022022
168.14073 10.526552 47.695766
168.64706 9.2742996 45.629658
169.12144 7.8497295 43.317345
169.55222 6.203804 40.689724
170.161 4.8550797 38.440651
161.62975 18.832684 64.389587
163.25716 19.914841 65.364082
164.12222 19.858316 64.956947
164.9967 19.813828 64.563904
165.7601 19.582315 63.938637
166.05112 18.529583 62.287895
166.35414 17.434002 60.569904
165.87106 14.841528 56.954628
166.63545 14.421002 56.052193
167.41115 13.994253 55.136414
168.19493 13.554203 54.198116
168.55809 12.208866 52.091835
168.63249 10.141375 49.036301
168.51456 7.48387 45.188873
169.14133 6.3461828 43.287834
169.62123 4.7571783 40.780952
170.38617 3.7507608 39.020336
161.71133 17.852514 64.709785
163.30109 18.893673 65.604111
164.15378 18.809629 65.164078
165.03265 18.764023 64.769257
165.91292 18.718155 64.373535
166.2412 17.705538 62.800888
166.54811 16.592512 61.092518
166.71214 15.143949 58.957397
167.46013 14.72049 58.070755
168.21928 14.290684 57.170837
168.98991 13.854401 56.257347
168.79646 11.337928 52.72757
168.90211 9.2922592 49.759586
168.56245 6.0673037 45.270435
169.23573 4.9951229 43.483166
169.69019 3.288877 40.870277
161.79349 16.865793 65.032127
163.32396 17.829109 65.806473
164.19127 17.759634 65.384033
165.06885 17.703512 64.97644
165.95366 17.656687 64.579132
166.43129 16.880709 63.314026
166.77419 15.809202 61.685829
167.50298 15.401674 60.842209
168.24237 14.988203 59.986294
168.99263 14.568666 59.117813
169.43561 13.475238 57.42141
169.06067 10.524416 53.432175
169.14822 8.3938513 50.417511
168.64684 4.7153168 45.457218
169.23325 3.3903399 43.382969
169.85593 2.0446577 41.266144
161.814 15.773947 65.245155
163.22223 16.550556 65.77993
164.51497 17.177042 66.152565
165.23576 16.856312 65.443375
165.99471 16.584335 64.786591
166.56779 15.957405 63.713745
167.25024 15.497 62.827778
167.94386 15.02878 61.926933
168.64915 14.552961 61.011311
169.33012 13.994238 59.991352
169.65784 12.638556 58.013191
169.36363 9.800951 54.240185
169.36758 7.4351354 51.001034
168.53616 2.8779321 45.076149
169.2498 1.8041086 43.339012
160.38913 13.867865 64.927658
162.3611 15.521263 66.401115
163.5558 15.974426 66.559647
164.55719 16.123102 66.383163
165.35201 15.91801 65.810646
166.15256 15.711212 65.233704
166.86201 15.322474 64.447403
167.5448 14.85828 63.570129
168.23872 14.386229 62.678162
168.93161 13.880626 61.741669
169.3858 12.835018 60.171959
169.78165 11.586953 58.353157
169.66502 9.0817509 55.043995
167.91281 2.5237741 46.923985
161.28438 14.14875 66.667389
162.49957 14.617478 66.82534
163.68195 15.056133 66.956223
164.59993 15.059301 66.616165
165.39859 14.849113 66.04155
166.20328 14.637573 65.462914
167.01382 14.424263 64.879761
167.83038 14.209364 64.292259
168.53178 13.747606 63.424797
168.98445 12.735044 61.929562
169.44209 11.662977 60.354561
169.90627 10.528454 58.695351
169.7997 7.9830093 55.40316
160.18335 12.74443 66.934593
161.42241 13.233694 67.096542
162.63864 13.710672 67.251297
163.75249 14.036931 67.251457
164.64296 13.985104 66.851196
165.44576 13.770136 66.274902
166.25438 13.55336 65.694107
167.06914 13.335184 65.109222
167.90753 13.150419 64.558258
168.58307 12.617338 63.622311
169.03784 11.576948 62.119507
169.4989 10.477678 60.53894
169.97711 9.3380003 58.900204
169.83604 6.6415391 55.500111
160.28479 11.759004 67.308731
161.56093 12.315353 67.527245
162.77821 12.800629 67.678787
163.82368 13.010069 67.549179
164.68652 12.900764 67.088699
165.49324 12.680519 66.510292
166.30608 12.458839 65.92778
167.18011 12.344526 65.456833
168.03235 12.178398 64.929153
168.61282 11.428392 63.771866
169.07344 10.366018 62.268181
169.55118 9.2674351 60.712696
170.03836 8.1106586 59.080776
160.38678 10.768069 67.684952
161.69983 11.39348 67.959282
162.86282 11.790437 68.009811
163.89531 11.975048 67.848984
164.73039 11.805718 67.328293
165.56177 11.619421 66.788185
166.45287 11.538801 66.355232
167.32729 11.4195 65.881119
168.13631 11.156302 65.255127
168.66846 10.279728 63.981041
169.10614 9.1327057 62.410851
169.58763 8.0052433 60.848209
170.06201 6.7777014 59.165558
160.48935 9.771575 68.063278
161.83936 10.468492 68.393097
162.9312 10.743432 68.313515
163.96596 10.929178 68.148338
164.83572 10.814924 67.685165
165.72577 10.733237 67.253448
166.61816 10.651331 66.820572
167.42874 10.39575 66.210052
168.24098 10.127191 65.583344
168.7247 9.1188965 64.192436
169.13936 7.8839903 62.555584
169.59023 6.6459093 60.901352
169.96802 5.1375065 58.950241
160.5925 8.7694836 68.443741
162.30138 10.109073 69.375656
163.51544 10.623509 69.524384
164.46043 10.664744 69.21846
165.32367 10.551433 68.761757
166.19032 10.43814 68.303787
166.8403 9.8765869 67.400818
167.5309 9.3649721 66.541237
168.34639 9.0909901 65.913818
168.78152 7.9456921 64.406082
169.12892 6.5170431 62.598591
169.52295 5.0974503 60.784248
169.84453 3.3908944 58.660179
160.56792 7.5367641 68.615936
162.6091 9.4891024 70.093956
163.98659 10.320837 70.53318
165.04138 10.585759 70.442093
165.98235 10.643267 70.15535
166.75589 10.366858 69.547684
167.30406 9.605279 68.467041
167.73512 8.5443516 67.086334
168.45241 8.0473967 66.246346
168.78651 6.6399002 64.503761
169.05771 4.9846449 62.500069
169.42963 3.4562993 60.604431
169.58372 1.2577391 58.020348
161.47348 9.5840607 72.148384
163.03561 10.740636 72.863541
164.10669 11.058613 72.819595
165.00194 11.062743 72.488556
165.88269 11.038994 72.131599
166.76089 11.008812 71.768356
167.5018 10.694703 71.137253
168.17833 10.224764 70.355011
168.70778 9.4033508 69.232574
168.49443 6.8503809 66.441048
168.68245 5.0603809 64.357193
168.98503 3.4207511 62.399513
169.32379 1.7516422 60.395115
161.75685 10.515264 74.548828
162.93724 11.03058 74.673645
163.8325 11.054241 74.364014
164.68896 11.00669 73.990524
165.57602 11.01527 73.667358
166.43822 10.975224 73.299973
167.29167 10.915054 72.913712
168.09723 10.750943 72.430962
168.86757 10.500527 71.866386
169.30273 9.4868717 70.587082
169.65567 8.2163439 69.055771
168.57619 3.4456902 64.207581
168.89265 1.7795043 62.254284
161.14896 9.8928785 75.528931
162.5023 10.712566 75.905113
163.57411 11.066286 75.884537
164.55225 11.265138 75.73214
165.416 11.257133 75.399643
166.21593 11.123809 74.955978
167.00812 10.967288 74.490211
167.78909 10.778273 73.993622
168.52769 10.487322 73.40303
169.10454 9.8219051 72.469421
169.6441 9.0286722 71.411995
170.10536 7.9983349 70.128334
168.46738 1.7941022 64.054337
160.2614 8.7915745 76.101593
161.77182 9.8718061 76.6754
163.04156 10.575423 76.941956
164.12154 10.966722 76.950012
165.0847 11.158427 76.791214
165.98227 11.233473 76.533867
166.80695 11.167547 76.15506
167.63168 11.097905 75.772316
168.29012 10.673061 75.077026
168.87605 10.064469 74.214966
169.36845 9.2074881 73.125816
169.88448 8.3493023 72.026535
170.32776 7.2589064 70.709442
166.67081 -4.0739937 60.119072
160.82547 8.6575451 77.144104
162.3273 9.7574987 77.717773
163.48944 10.293909 77.836395
164.55078 10.669711 77.82682
165.57054 10.985675 77.771004
166.43744 11.01737 77.478706
167.19234 10.823546 76.995338
167.9337 10.590206 76.476212
168.66231 10.315454 75.91906
169.28983 9.7996902 75.150726
169.53049 8.3660851 73.578873
170.16238 7.7626171 72.718262
170.90079 7.3783693 72.044273
162.3976 8.7880955 78.048859
163.66968 9.5325327 78.325279
164.76874 9.9864931 78.372597
165.78758 10.30805 78.315994
166.70743 10.44838 78.113113
167.56171 10.461248 77.805817
168.3559 10.347017 77.392426
168.98904 9.8731174 76.675423
169.63109 9.3898401 75.945587
169.85924 7.910675 74.363083
170.42857 7.1552896 73.385132
