# .PCD v0.7 - Point Cloud Data file format
VERSION 0.7
FIELDS x y z
SIZE 4 4 4
TYPE F F F
COUNT 1 1 1
WIDTH 1417
HEIGHT 1
VIEWPOINT 0 0 0 1 0 0 0
POINTS 1417
DATA ascii
0.56448293 -0.12532824 0.57958645
0.54964513 -0.13122654 0.55730069
0.53186572 -0.14832759 0.53476131
0.63917947 -0.19693238 0.68136817
0.63397348 -0.15701348 0.65698075
0.62445116 -0.13888925 0.63397515
0.6121645 -0.13399988 0.61156946
0.59996736 -0.12896043 0.58925408
0.58803922 -0.12302023 0.56703264
0.57391131 -0.126477 0.54484224
0.55899376 -0.13297504 0.52253211
0.54205394 -0.14719206 0.49988875
0.64747429 -0.20342869 0.64554906
0.64143157 -0.16682416 0.62185442
0.63285291 -0.14394695 0.59904075
0.62065464 -0.13866562 0.57674128
0.60852528 -0.13334173 0.55454081
0.59686607 -0.12624562 0.53246462
0.58327818 -0.12761819 0.51032484
0.56806982 -0.13560307 0.48794439
0.55215645 -0.14606595 0.46531069
0.65556288 -0.21085447 0.60982513
0.64929712 -0.17468041 0.58668709
0.64135587 -0.1483776 0.56421995
0.6291638 -0.14308703 0.54203969
0.61730647 -0.13655388 0.5199815
0.6056487 -0.12946522 0.49806094
0.59242666 -0.12942761 0.47600701
0.57852989 -0.13221842 0.45382088
0.56569242 -0.13054496 0.43183395
0.65699774 -0.18331152 0.55154896
0.64905483 -0.15652627 0.52947438
0.63777411 -0.14686525 0.50748336
0.62622261 -0.13893992 0.4856135
0.61560029 -0.12725288 0.46405202
0.60539085 -0.11433154 0.44277158
0.59265512 -0.11279088 0.42103338
0.57906336 -0.11488551 0.39906707
0.66464555 -0.19219506 0.51641643
0.65762913 -0.16033083 0.4948777
0.6481849 -0.14181185 0.47341424
0.63765264 -0.12933838 0.4520044
0.6278227 -0.11429709 0.43097216
0.61754608 -0.10198236 0.41003737
0.60449457 -0.10229182 0.38837641
0.59080863 -0.10527253 0.36648315
0.67398113 -0.19235051 0.48158741
0.66778934 -0.15596718 0.4607833
0.65929168 -0.13282603 0.43995044
0.64880681 -0.12036294 0.4188816
0.63843179 -0.1080302 0.39803341
0.62816471 -0.09582597 0.37740231
0.61592394 -0.092925251 0.35616159
0.60237467 -0.09579891 0.33440328
0.67672694 -0.15734631 0.4267329
0.66960514 -0.12710708 0.4067719
0.65922767 -0.11427456 0.38604039
0.64890695 -0.10184252 0.36551034
0.63865024 -0.089746773 0.34517699
0.62716937 -0.083745778 0.32443357
0.61374503 -0.086550713 0.3028059
0.59040737 -0.13163829 0.27596384
0.68562913 -0.15861303 0.39290094
0.67874122 -0.12680507 0.3735612
0.66937065 -0.10899502 0.35354102
0.65911126 -0.096404016 0.33332843
0.64896131 -0.083947301 0.31333154
0.63824695 -0.074696124 0.29318559
0.62504411 -0.076993167 0.27174437
0.61190832 -0.078888893 0.25031567
0.68744934 -0.1283654 0.34042484
0.67939639 -0.10376859 0.32142413
0.66916877 -0.091154575 0.30151516
0.65909487 -0.078464866 0.28184533
0.6491285 -0.065921307 0.26238769
0.63629752 -0.066999793 0.24124336
0.62388301 -0.066182137 0.22036338
0.69617987 -0.12952316 0.30752915
0.68887281 -0.10082376 0.28942049
0.67914355 -0.085790396 0.27009696
0.66920054 -0.072594583 0.25079668
0.65924275 -0.060150981 0.23162693
0.64746082 -0.056760252 0.21128637
0.63523382 -0.055540621 0.19065261
0.70444399 -0.13289267 0.27456796
0.69750178 -0.10186249 0.25720751
0.6885972 -0.08254528 0.23876047
0.67875683 -0.068905652 0.21981263
0.66903341 -0.05541712 0.20108783
0.65827912 -0.047465622 0.18167758
0.64560688 -0.048706234 0.16078466
0.62507588 -0.085052073 0.13333994
0.70572203 -0.10478705 0.22492409
0.69795477 -0.079341352 0.20773554
0.68809658 -0.065848231 0.18905342
0.67834914 -0.052528679 0.17058492
0.66820455 -0.041801453 0.15188646
0.65575194 -0.042391062 0.1312266
0.63733637 -0.070104063 0.10514706
0.7137633 -0.10846192 0.19267166
0.70712471 -0.076670527 0.17693442
0.69731963 -0.062949181 0.15857363
0.68756771 -0.049702108 0.1403712
0.67764843 -0.037968874 0.1221121
0.6648888 -0.040337682 0.10119033
0.64833999 -0.060149372 0.076514721
0.7151165 -0.079921246 0.14535594
0.70620745 -0.061369777 0.12814265
0.69578314 -0.051572621 0.10951805
0.68544745 -0.041858554 0.091051817
0.67104387 -0.05234015 0.068376184
0.72125638 -0.093174398 0.11196673
0.71263111 -0.072593451 0.095368326
0.70286083 -0.059118748 0.077627897
0.69320393 -0.045800447 0.060093462
0.68025643 -0.049409032 0.03889972
0.71835715 -0.15748435 0.067840695
0.71713167 -0.094440997 0.060214162
0.7108196 -0.061962485 0.046815634
0.7006855 -0.050999105 0.028951466
0.72312951 -0.180071 0.031460762
0.46436802 -0.12324762 1.6764517
0.44731683 -0.11699748 1.6982147
0.72561771 -0.10619664 1.1601919
0.708157 -0.10023671 1.1831059
0.69884217 -0.1118862 1.2107373
0.68194878 -0.10709471 1.2339199
0.66933203 -0.11176175 1.2598006
0.65437311 -0.11123312 1.2841873
0.63889605 -0.10949326 1.3081794
0.61922842 -0.097887874 1.3289068
0.60768533 -0.1052475 1.3557956
0.59373093 -0.10701221 1.3808905
0.58123946 -0.11241519 1.4073272
0.48235178 -0.12401927 1.5842264
0.45865971 -0.099189997 1.5979228
0.4418745 -0.093112409 1.6195889
0.42555875 -0.088173687 1.6416553
0.41264492 -0.093081892 1.6682818
0.4017733 -0.10430968 1.69807
0.39529437 -0.12941694 1.7349567
0.7212584 -0.1244927 1.1239123
0.69390446 -0.097030163 1.1417048
0.67816442 -0.094453394 1.165334
0.67484242 -0.11960751 1.1963401
0.65815449 -0.11512566 1.2196205
0.64350414 -0.11520827 1.2441258
0.62898159 -0.11559159 1.2687228
0.6141746 -0.1153118 1.2931223
0.59082645 -0.094463646 1.3109341
0.57645667 -0.094921649 1.3353517
0.56205273 -0.095308304 1.3597544
0.54627615 -0.092247784 1.3829546
0.53429347 -0.098805785 1.4095694
0.54025698 -0.15228873 1.4537796
0.46281284 -0.10281581 1.5327855
0.44307792 -0.088294268 1.55098
0.42632681 -0.081855297 1.5723841
0.4114067 -0.080557704 1.5959418
0.39746761 -0.0821473 1.6207871
0.38457888 -0.086999536 1.6471851
0.3731055 -0.096439183 1.6758685
0.36269751 -0.10962927 1.7065734
0.68821001 -0.11237484 1.1050159
0.66346616 -0.089724839 1.1239253
0.65076524 -0.093727529 1.149045
0.6463663 -0.15105712 1.2129172
0.62583548 -0.1376121 1.2338817
0.6098336 -0.13464141 1.2576268
0.58707738 -0.11511439 1.2763028
0.57122076 -0.11206603 1.2997289
0.5565778 -0.11197346 1.3240469
0.53895426 -0.10426474 1.3458226
0.52087533 -0.095125794 1.3669463
0.50698996 -0.096748888 1.3916936
0.49672005 -0.10812312 1.4200307
0.49581894 -0.14543647 1.4583319
0.48430115 -0.15458071 1.4865499
0.45316043 -0.10864604 1.4931589
0.43121952 -0.08750695 1.5088861
0.41467565 -0.081389606 1.5304312
0.39841568 -0.075892568 1.5521147
0.38490251 -0.078527927 1.57724
0.37183762 -0.082652748 1.6030866
0.35908043 -0.087909937 1.6295371
0.34823871 -0.099543929 1.6590836
0.33991051 -0.11990905 1.6930509
0.65794325 -0.10539824 1.0875636
0.63371098 -0.083084285 1.1065333
0.62399083 -0.093895316 1.1331166
0.57423371 -0.18773806 1.3061641
0.53324145 -0.12050736 1.3099449
0.51466823 -0.11005163 1.3308668
0.49625897 -0.099688411 1.351604
0.48119384 -0.098067641 1.3751612
0.46644577 -0.097268462 1.3989782
0.45503327 -0.10582584 1.426219
0.44556344 -0.12024951 1.4558539
0.42990339 -0.117149 1.4789817
0.40665844 -0.091416895 1.4930236
0.38907918 -0.081855774 1.5131475
0.37420934 -0.080279827 1.5364219
0.36013979 -0.081157267 1.5607178
0.34778947 -0.087578952 1.5874714
0.33621067 -0.096782923 1.6156101
0.32600576 -0.11095196 1.6462257
0.32033116 -0.14115477 1.6846848
0.62930703 -0.10131633 1.0709628
0.60523409 -0.078575552 1.0898447
0.59604013 -0.090731502 1.1165282
0.52965903 -0.14251018 1.2755609
0.5041936 -0.11374354 1.2911339
0.48496282 -0.10091221 1.3112025
0.46960109 -0.098308146 1.3343772
0.45392212 -0.094724774 1.3571655
0.43927923 -0.093971252 1.3808707
0.42476672 -0.093569458 1.4046873
0.41363356 -0.10314721 1.4321945
0.40601349 -0.12366337 1.4640653
0.3871209 -0.11035687 1.4831264
0.36624783 -0.090340793 1.4992199
0.35094944 -0.087320745 1.5219002
0.33763659 -0.090641379 1.5471947
0.32554907 -0.098167121 1.5743756
0.31394327 -0.1076405 1.6025733
0.30718112 -0.13429081 1.6387453
0.59999591 -0.094877064 1.0540506
0.57743335 -0.074927926 1.0735344
0.56935805 -0.089972079 1.1006659
0.52441573 -0.16042769 1.2396047
0.49670196 -0.12533176 1.253912
0.47640318 -0.10942268 1.2732931
0.4589861 -0.10101974 1.2946913
0.44345409 -0.097683311 1.317551
0.42780057 -0.093876481 1.3401858
0.41309905 -0.092736661 1.363657
0.39993536 -0.096169174 1.3887196
0.38646317 -0.098787785 1.4135567
0.37426859 -0.10548639 1.4399716
0.36795652 -0.13113022 1.4737955
0.34510702 -0.10422432 1.4874362
0.32965273 -0.10066754 1.5099661
0.31686246 -0.10595101 1.536088
0.30568036 -0.11699831 1.5647668
0.29665285 -0.13610673 1.5971786
0.29302818 -0.17549467 1.6390119
0.57018602 -0.086326063 1.0369216
0.54770195 -0.065737069 1.0562166
0.54291123 -0.08921957 1.0849435
0.51909292 -0.17834985 1.2033725
0.48997238 -0.13905895 1.2172117
0.47014689 -0.12431753 1.2372398
0.45072651 -0.11021262 1.2571549
0.43406123 -0.10355461 1.2790546
0.41775256 -0.097703457 1.3010727
0.40365678 -0.09825331 1.3250556
0.38955444 -0.098803341 1.3490494
0.37385207 -0.094410062 1.3713446
0.35904473 -0.092677355 1.3944975
0.34699351 -0.099764109 1.420846
0.33780482 -0.11655319 1.4509921
0.32674122 -0.12773705 1.479313
0.31114906 -0.12386775 1.5018871
0.29886746 -0.13142359 1.5290339
0.28974289 -0.15060449 1.5611858
0.28423443 -0.18387109 1.599751
0.53521591 -0.028961957 0.98742479
0.5204398 -0.026508331 1.0099509
0.50924003 -0.033132434 1.0343041
0.51348078 -0.19570088 1.1667242
0.48427296 -0.15575647 1.1811392
0.46350488 -0.13826931 1.2007544
0.44420245 -0.12438112 1.2210145
0.42593756 -0.11303198 1.2417235
0.41077003 -0.11049342 1.2648292
0.39563206 -0.10795045 1.2878817
0.37982041 -0.1032306 1.3101895
0.36335188 -0.096261144 1.3316619
0.34801692 -0.092658162 1.3541334
0.33436218 -0.094413579 1.3784016
0.32085061 -0.096718431 1.4029026
0.30917847 -0.10539281 1.4298027
0.30542189 -0.14200461 1.467479
0.29720679 -0.16433907 1.500337
0.28731433 -0.18156207 1.5316052
0.27811897 -0.20215875 1.5646064
0.5155105 -0.043036282 0.97533625
0.4940874 -0.023354292 0.99465251
0.47726101 -0.015151858 1.0158688
0.50089288 -0.19395393 1.1254209
0.47448838 -0.1611501 1.1421102
0.4573938 -0.15386134 1.1645347
0.43742055 -0.13792771 1.1845565
0.42010114 -0.12929165 1.2062333
0.40340614 -0.12222552 1.2281771
0.38780597 -0.11826408 1.2508821
0.37079242 -0.10972005 1.272126
0.35359716 -0.10026389 1.2929127
0.33845901 -0.097138584 1.3155441
0.32400966 -0.096177876 1.3388305
0.30984628 -0.096148193 1.3624156
0.29635236 -0.098437309 1.3868165
0.28255981 -0.099767268 1.4109161
0.27492228 -0.12342042 1.4433511
0.28923714 -0.22932601 1.5077103
0.57733607 -0.12180269 0.87938178
0.55272055 -0.095819354 0.89941508
0.53516906 -0.087020636 0.92156166
0.52032185 -0.084939063 0.94462919
0.50551224 -0.082889974 0.96766037
0.47053432 -0.026944816 0.98075199
0.45381388 -0.018694162 1.0019562
0.43599281 -0.00713256 1.0223192
0.43371594 -0.038777649 1.0516906
0.46524188 -0.16795874 1.1035432
0.44621718 -0.1549136 1.1247135
0.42861041 -0.14559245 1.14653
0.41297907 -0.14187592 1.1695833
0.39653054 -0.13551748 1.1918635
0.37981915 -0.12809813 1.2137245
0.3627376 -0.11921579 1.2350202
0.3456763 -0.11005038 1.2560532
0.33006591 -0.10532057 1.2782526
0.31462386 -0.10096622 1.3004749
0.30012429 -0.099679828 1.3236054
0.28726634 -0.1041187 1.3486269
0.27183479 -0.099491835 1.3706113
0.25794053 -0.10031295 1.3944362
0.24622126 -0.10935217 1.4212775
0.24235664 -0.14904195 1.4597971
0.59465629 -0.12373418 0.79398608
0.57254601 -0.10426098 0.81558418
0.55242234 -0.089170098 0.83730447
0.53456855 -0.079381526 0.85939592
0.51963156 -0.076809824 0.88228023
0.50465393 -0.074050844 0.90508544
0.4906123 -0.073694289 0.92821312
0.47834119 -0.07811439 0.95213228
0.46695596 -0.085116386 0.97659785
0.45889023 -0.10163367 1.0029861
0.41644016 -0.020949244 1.010525
0.44081193 -0.13076252 1.0559473
0.39532521 -0.038793623 1.0597057
0.3784419 -0.029238522 1.0803623
0.40330538 -0.14675862 1.1310041
0.38757139 -0.14244044 1.1538485
0.37224457 -0.13924783 1.1768961
0.35523638 -0.1304996 1.1983931
0.33837739 -0.12189579 1.2197546
0.32293558 -0.11770731 1.2422136
0.30750784 -0.11339414 1.2645514
0.29213372 -0.10908669 1.2868042
0.28289333 -0.12654257 1.315886
0.26316988 -0.10642862 1.3330033
0.24833438 -0.10368758 1.3555858
0.23462313 -0.10512155 1.3795656
0.22218841 -0.11162138 1.4053872
0.21353967 -0.13361812 1.4370409
0.61743385 -0.13894683 0.70994639
0.59454709 -0.11800522 0.73219937
0.57413626 -0.10253209 0.75447667
0.55595726 -0.092163622 0.77690893
0.54050195 -0.088378131 0.79979861
0.52510047 -0.084614277 0.82261497
0.50974524 -0.080853283 0.84535646
0.49474779 -0.077922285 0.86813152
0.47957125 -0.07441324 0.89076638
0.46397287 -0.069633007 0.91313934
0.45161849 -0.073732018 0.9368456
0.44019973 -0.080621481 0.96111071
0.43088078 -0.093802392 0.98665172
0.42275295 -0.11094111 1.013212
0.38584632 -0.042762041 1.0229739
0.40375793 -0.1387642 1.0659989
0.39546514 -0.15718114 1.0938046
0.37917423 -0.15105826 1.1163126
0.36296344 -0.14495659 1.1387032
0.34806827 -0.14292967 1.1619942
0.33230355 -0.13791263 1.1844647
0.31731558 -0.13534153 1.2074974
0.30139709 -0.1294204 1.2295377
0.2859689 -0.12499136 1.2518936
0.27664292 -0.14256328 1.28078
0.25184652 -0.10339785 1.2923812
0.23658144 -0.098693073 1.3142557
0.22334844 -0.10167682 1.33858
0.21140499 -0.10994118 1.3647635
0.20124076 -0.12587368 1.3938026
0.19269773 -0.14938927 1.4258962
0.61678535 -0.13217145 0.6485194
0.5987581 -0.12278664 0.67167276
0.57892549 -0.1087001 0.69438004
0.56169611 -0.1006729 0.71720123
0.54644907 -0.097411156 0.74022025
0.53114223 -0.093895674 0.7631526
0.5158627 -0.090342402 0.78601158
0.50054562 -0.086577654 0.80877769
0.48528194 -0.082834899 0.83147109
0.47006372 -0.079094529 0.85409033
0.45518047 -0.07616055 0.87674391
0.44079185 -0.074524522 0.89952689
0.42707542 -0.074763477 0.92256731
0.41604257 -0.082854092 0.94690514
0.40436858 -0.08932507 0.97112119
0.36279589 -0.0054806173 0.97879916
0.36071885 -0.040364981 1.0079002
0.37654194 -0.13280445 1.049463
0.36560333 -0.14308029 1.0752497
0.3546288 -0.15363991 1.1013048
0.3388395 -0.14858776 1.123912
0.32474753 -0.14909703 1.1477772
0.31136775 -0.15209645 1.1722853
0.29586095 -0.14769191 1.1948974
0.28029639 -0.14288771 1.2173122
0.27103367 -0.1611709 1.2461903
0.241331 -0.10300267 1.2529523
0.22543964 -0.095569193 1.2739794
0.21182449 -0.096796691 1.2975776
0.20028126 -0.10648656 1.3239416
0.19107503 -0.12636954 1.3539014
0.18116532 -0.14426696 1.3835745
0.63862944 -0.14526141 0.56450331
0.62077105 -0.13648289 0.58803183
0.60276657 -0.12710083 0.61137462
0.5842582 -0.11621267 0.63448679
0.5670476 -0.10822481 0.65749753
0.55184335 -0.10505253 0.68058729
0.53668016 -0.10188884 0.70361471
0.52237487 -0.10085577 0.72672665
0.50808972 -0.099843025 0.74981964
0.49357373 -0.098179638 0.77283484
0.47826678 -0.09430778 0.79559839
0.46311861 -0.09074825 0.81831932
0.44806778 -0.087343693 0.84098816
0.43307787 -0.08399725 0.8635968
0.41788793 -0.0799523 0.88604224
0.40336579 -0.077744007 0.90868032
0.3902387 -0.079665184 0.93192858
0.37822998 -0.085092425 0.95580518
0.3678351 -0.095771492 0.98072529
0.35862055 -0.11061925 1.0066414
0.34968609 -0.12695152 1.033146
0.33919683 -0.13877451 1.0590366
0.32924274 -0.15288287 1.08566
0.31695527 -0.1595189 1.1108606
0.30256835 -0.15903777 1.134501
0.29053256 -0.16699523 1.1602216
0.27632746 -0.1673249 1.1841354
0.26805484 -0.189969 1.2140241
0.22819689 -0.092207432 1.210964
0.21343905 -0.088634849 1.2330251
0.20164654 -0.096839249 1.2585156
0.19084083 -0.10951954 1.2855432
0.18066828 -0.12551796 1.3138744
0.64174026 -0.14760089 0.50415468
0.62404585 -0.13913035 0.52783072
0.60647666 -0.13071984 0.55133915
0.58892214 -0.12210172 0.57468051
0.57239503 -0.11577505 0.5978837
0.55779201 -0.11409569 0.62107253
0.54322922 -0.11246783 0.64422983
0.52877331 -0.11106724 0.66736513
0.51541746 -0.1125167 0.69062483
0.50201201 -0.11387986 0.71390784
0.48742035 -0.11206585 0.73698533
0.47209349 -0.1081633 0.75985324
0.45770645 -0.10676783 0.78287727
0.44418412 -0.10779232 0.80612254
0.42900378 -0.10404021 0.82884967
0.41243917 -0.096069157 0.85098547
0.39519566 -0.085774064 0.87265611
0.3779518 -0.075104475 0.89407009
0.36505368 -0.077584386 0.91727477
0.3520259 -0.079745591 0.94047666
0.34154969 -0.090246558 0.96515536
0.33254921 -0.10602689 0.99100143
0.32345521 -0.12212151 1.0172194
0.31313702 -0.13466787 1.04304
0.30470738 -0.15435386 1.0706182
0.29622018 -0.17466909 1.0987246
0.28307933 -0.17884809 1.1235013
0.2723085 -0.19206989 1.1505406
0.26301363 -0.211532 1.1794072
0.21608503 -0.084720969 1.1705046
0.20291327 -0.087039292 1.1940544
0.19107284 -0.094929457 1.2192132
0.18171217 -0.11363465 1.2476695
0.18082927 -0.16983557 1.2877567
0.66315317 -0.12756807 0.39879093
0.65044641 -0.13042945 0.42187101
0.6391921 -0.13675994 0.44483167
0.62584144 -0.1383056 0.4681122
0.60840291 -0.13008243 0.4917261
0.59163058 -0.12324524 0.515149
0.57811761 -0.12426054 0.5383482
0.56447089 -0.12497056 0.56156802
0.54989368 -0.12333411 0.58478212
0.53533638 -0.12169945 0.60796416
0.5215416 -0.1220144 0.63116854
0.50817192 -0.12347192 0.65442234
0.49512467 -0.12584901 0.6777488
0.48302317 -0.13090509 0.70127606
0.47015116 -0.13397306 0.72476882
0.45665711 -0.13537556 0.74819338
0.44314367 -0.13676989 0.77164495
0.43091181 -0.14198303 0.79549378
0.40902019 -0.11845732 0.81637836
0.3875069 -0.095238507 0.83683598
0.3699525 -0.083457112 0.85828233
0.35379004 -0.075637162 0.88003653
0.34075528 -0.077596784 0.90306515
0.32787454 -0.080138505 0.92622328
0.31615531 -0.086670518 0.95009249
0.30703309 -0.10233968 0.9756946
0.29875892 -0.121611 1.0022728
0.28936836 -0.13771695 1.0286121
0.28108525 -0.15854204 1.056236
0.27585888 -0.19164127 1.0869079
0.26791933 -0.21591496 1.1162471
0.21979837 -0.085115135 1.1096847
0.20511594 -0.081202507 1.131564
0.19262996 -0.086049914 1.1555938
0.18225351 -0.099942088 1.1821077
0.17428757 -0.12485224 1.2119132
0.68195301 -0.10340154 0.29652023
0.66822201 -0.10345 0.31944042
0.65456271 -0.10366225 0.34234589
0.6414851 -0.10521704 0.36514086
0.6283859 -0.10676432 0.38796711
0.61646056 -0.11112672 0.41063809
0.60672635 -0.12086004 0.43309397
0.59596878 -0.12838548 0.45584255
0.58238119 -0.12915438 0.47898471
0.56888372 -0.13017076 0.50213516
0.55537438 -0.13118786 0.52530569
0.54185343 -0.13220584 0.54849619
0.52767074 -0.13152385 0.57170177
0.5150491 -0.1349678 0.59494579
0.5029912 -0.14004302 0.618294
0.4908815 -0.14513993 0.64174235
0.47874874 -0.15033925 0.66529489
0.46683323 -0.15632784 0.68899012
0.45776036 -0.17071152 0.71331966
0.45088977 -0.1920476 0.7384274
0.44139284 -0.20629728 0.76337802
0.41120341 -0.15822613 0.7829383
0.3811307 -0.108769 0.80141693
0.36290339 -0.094778776 0.82284784
0.34676445 -0.086960852 0.8447476
0.33092719 -0.079828739 0.86658341
0.31683409 -0.078231812 0.88905418
0.30388543 -0.080462396 0.91206676
0.29275781 -0.089103341 0.9361462
0.28441691 -0.10797435 0.96212733
0.27601296 -0.12741995 0.9885813
0.2691471 -0.15339524 1.0166501
0.26251563 -0.18140966 1.0456333
0.21361437 -0.10044324 1.0753332
0.19482361 -0.079980016 1.0935607
0.18233068 -0.084632337 1.1173635
0.17242213 -0.10050094 1.1440364
0.70242971 -0.084635794 0.19634378
0.68706685 -0.080774486 0.21957207
0.67252654 -0.078627288 0.24248606
0.65949947 -0.079803944 0.26492745
0.64620513 -0.080406785 0.28746045
0.63396955 -0.08345437 0.30973631
0.62360013 -0.09092319 0.33162791
0.61316359 -0.098440349 0.35366094
0.60269165 -0.10608298 0.37583053
0.59269136 -0.11508572 0.39805278
0.58412421 -0.12787139 0.42021891
0.57424796 -0.13776481 0.44278353
0.56064117 -0.13850731 0.46592361
0.54702574 -0.13925004 0.48907816
0.53545082 -0.14533907 0.51212829
0.52475822 -0.15395457 0.53526568
0.51360893 -0.16161227 0.55857378
0.50177145 -0.16763389 0.58201998
0.49296796 -0.18228209 0.60572863
0.48652211 -0.2040742 0.62991297
0.48076054 -0.22856468 0.65462059
0.37587571 -0.12593973 0.76617157
0.35720962 -0.11049366 0.78776175
0.33983719 -0.098669946 0.80942935
0.32381734 -0.090875506 0.8313272
0.30815822 -0.083992958 0.85318595
0.29327792 -0.079521358 0.87523335
0.28281933 -0.090447843 0.89940584
0.27230692 -0.101641 0.92383254
0.26412469 -0.12188107 0.94995415
0.25818324 -0.15142941 0.97808075
0.25209093 -0.18172765 1.0069214
0.18729651 -0.089782774 1.0582293
0.1726822 -0.085582078 1.0800004
0.16244598 -0.10011631 1.1060271
0.70813465 -0.064486444 0.12126136
0.69280833 -0.060392499 0.14437973
0.67756182 -0.056368351 0.16740638
0.66322261 -0.054237664 0.19004464
0.65256631 -0.060263455 0.21138525
0.64265472 -0.068130314 0.23257738
0.6326791 -0.076060772 0.25391406
0.62248045 -0.083688319 0.2754426
0.61211765 -0.091138959 0.29713976
0.601704 -0.098675728 0.31897277
0.59123462 -0.10629022 0.34094483
0.58069277 -0.11394489 0.36306173
0.57009351 -0.12167889 0.38532126
0.56198955 -0.1359418 0.40729684
0.5556525 -0.15515959 0.42926809
0.54606152 -0.16649491 0.45198458
0.53588599 -0.17663455 0.47496581
0.52792585 -0.19303656 0.49797136
0.5238511 -0.22055125 0.52109659
0.37731886 -0.16464865 0.73217762
0.3512069 -0.12539923 0.75240695
0.33344305 -0.11221707 0.77419376
0.31687155 -0.10253406 0.7960701
0.30097514 -0.094782352 0.81796753
0.28548551 -0.088139713 0.83984524
0.27324891 -0.092864454 0.86304784
0.26195136 -0.10122418 0.88684291
0.25320643 -0.11948353 0.91225922
0.24655709 -0.14655912 0.93941551
0.24716517 -0.20321441 0.97203243
0.18658227 -0.12817276 1.0284775
0.16690636 -0.10287863 1.046262
0.15472463 -0.1093173 1.0703907
0.70677906 -0.058239639 0.067221999
0.68563026 -0.041486919 0.092916012
0.67180604 -0.040204048 0.11522841
0.66079986 -0.045080602 0.13635838
0.65011078 -0.050789118 0.15743452
0.63989216 -0.057707965 0.17841715
0.63019305 -0.06599766 0.19931602
0.62042755 -0.074356794 0.22036511
0.61079061 -0.083245575 0.24150223
0.60298818 -0.096745491 0.26221287
0.59521377 -0.11069137 0.28313118
0.58734167 -0.12479514 0.30430257
0.57937443 -0.1390695 0.32572967
0.57131433 -0.1535275 0.34741658
0.56315148 -0.16815245 0.36936998
0.56526959 -0.20989627 0.38966155
0.34969366 -0.15523994 0.71782875
0.32705939 -0.12593198 0.73883384
0.30982617 -0.11392957 0.76071161
0.29401174 -0.10639066 0.78277147
0.27822632 -0.098643482 0.80466413
0.26430631 -0.097352386 0.82713157
0.25314319 -0.10624731 0.85081625
0.24319114 -0.12013316 0.87533045
0.236408 -0.14694929 0.90194112
0.2411321 -0.22071207 0.93616116
0.16197774 -0.12418342 1.0130222
0.14810443 -0.12346542 1.0357387
0.14207473 -0.15887237 1.0659962
0.70406711 -0.049170494 0.014589012
0.68838924 -0.043925405 0.037849545
0.67315227 -0.039503932 0.06082654
0.66084707 -0.041401923 0.082378745
0.64903295 -0.044439673 0.10373706
0.64057231 -0.055104852 0.12368453
0.63204026 -0.065888643 0.14381611
0.62411475 -0.078362942 0.16386282
0.61611909 -0.091010988 0.18412161
0.60791957 -0.10352254 0.20464557
0.60064143 -0.1186012 0.22504008
0.59328902 -0.13392448 0.24569261
0.3496021 -0.19043946 0.68287784
0.32311779 -0.14809597 0.70382488
0.30322173 -0.12692595 0.72539109
0.28668863 -0.11680317 0.74740469
0.27125114 -0.11022037 0.76953155
0.25589475 -0.10365534 0.79153299
0.24436297 -0.11124319 0.81491375
0.2337127 -0.12257272 0.83887529
0.22651145 -0.14803678 0.86483222
0.2268928 -0.20532799 0.89558852
0.14115049 -0.13627625 1.0006824
0.12903824 -0.14388078 1.0250399
0.68146247 -0.05389595 0.0031747818
0.66949916 -0.056610107 0.024543226
0.72863013 -0.21709085 0.010285199
0.64624381 -0.063757598 0.067064285
0.63738632 -0.073778152 0.08709389
0.62868148 -0.084417045 0.10719395
0.62074482 -0.097138643 0.12710768
0.6276986 -0.14549285 0.14091969
0.32148218 -0.17862272 0.66877854
0.29872298 -0.14746559 0.69034851
0.27955037 -0.12792259 0.71204138
0.26405436 -0.12106299 0.7342689
0.24859473 -0.11404264 0.75635135
0.23618971 -0.11843383 0.77933717
0.22460979 -0.12626189 0.80275309
0.21616825 -0.14705312 0.827748
0.21284428 -0.18986487 0.85578084
0.13790873 -0.16653538 0.96843958
0.1214563 -0.15407497 0.98931903
0.66802412 -0.10854161 0.001773119
0.65644956 -0.11283869 0.023228884
0.65463221 -0.13971257 0.039775193
0.31733853 -0.20100242 0.63286072
0.29297054 -0.16387075 0.65480518
0.27404413 -0.14507139 0.67689931
0.25676668 -0.13162267 0.69893599
0.24151023 -0.125296 0.7211858
0.2281255 -0.12598765 0.74384564
0.21643414 -0.13346827 0.76709735
0.20745552 -0.15237886 0.79157591
0.20018616 -0.1793462 0.81725758
0.11464292 -0.16806442 0.95418119
0.10231908 -0.17552382 0.97847652
0.66005313 -0.17941386 -0.0029788017
0.64992446 -0.18812436 0.01809305
0.6532656 -0.22929561 0.032316446
0.28959155 -0.18913317 0.61924201
0.26802757 -0.16058147 0.64146233
0.24939546 -0.14191425 0.66354722
0.23417342 -0.1356436 0.6859073
0.22010809 -0.13367641 0.70840812
0.2082763 -0.1406827 0.73149955
0.19849405 -0.15653771 0.75542855
0.18874425 -0.17330277 0.77974099
0.19058444 -0.24146283 0.80944133
0.11019331 -0.19402719 0.92064619
0.093447387 -0.17944384 0.94155025
0.28529292 -0.21150506 0.5831778
0.26094991 -0.17229176 0.60576993
0.24288023 -0.15554547 0.62821007
0.22679669 -0.14587659 0.65058577
0.21257447 -0.14327067 0.67309844
0.20024656 -0.1483618 0.69598401
0.18923108 -0.15924674 0.71933931
0.17939922 -0.17579651 0.74331999
0.17803018 -0.2307725 0.77081937
0.087165877 -0.19670707 0.90666175
0.075108215 -0.20646739 0.93123847
0.25337365 -0.18217361 0.56999809
0.23674007 -0.17079604 0.59275597
0.21941501 -0.15612924 0.61522973
0.20523891 -0.15369564 0.63779783
0.1922216 -0.15601242 0.66050929
0.18065773 -0.1646958 0.68357885
0.17041437 -0.17963713 0.70718074
0.16567536 -0.22024381 0.73281771
0.064581648 -0.20113075 0.89298922
0.053659052 -0.21772927 0.9184472
0.24579555 -0.1920712 0.53420472
0.22919016 -0.18063372 0.55713785
0.21202382 -0.16638243 0.57983816
0.19789734 -0.16414237 0.60245675
0.18474619 -0.16596144 0.62513441
0.17225862 -0.17077672 0.64794952
0.16182752 -0.18507046 0.67127091
0.157088 -0.22633219 0.69629872
0.071252987 -0.29206896 0.86666936
0.042559817 -0.20829093 0.8797251
0.0333381 -0.23600769 0.90660208
0.2438333 -0.22423524 0.49778089
0.22163568 -0.19047731 0.52149898
0.20522131 -0.17911726 0.5443908
0.19054729 -0.1746012 0.56707478
0.17738281 -0.17642915 0.58973879
0.16423383 -0.1784175 0.61244017
0.15326919 -0.19049728 0.6354717
0.14854062 -0.2324872 0.65987813
0.023764446 -0.23508513 0.86889863
0.21406944 -0.20029652 0.48583984
0.19764598 -0.18871915 0.50890911
0.18278681 -0.18333638 0.53167582
0.16995965 -0.18668175 0.55430323
0.15681352 -0.18874902 0.57698667
0.14524198 -0.19825959 0.59981525
0.13933255 -0.23536241 0.62347317
0.0059412122 -0.27039397 0.85886866
0.20649916 -0.21012151 0.45016047
0.18972728 -0.1968649 0.47346711
0.17452931 -0.18987542 0.49634904
0.16170435 -0.19322652 0.51890379
0.14884384 -0.19658685 0.54152095
0.13701117 -0.2050035 0.56419903
0.13035735 -0.23912662 0.58726418
0.19760056 -0.21431011 0.41480702
0.18181449 -0.20500416 0.43805277
0.16628695 -0.19639128 0.46109605
0.15352021 -0.20000577 0.48356998
0.14089498 -0.20447648 0.50609034
0.1290966 -0.21318686 0.52863067
0.12233484 -0.24741125 0.55118984
0.1840097 -0.19798142 0.38114506
0.1700218 -0.19587237 0.40381092
0.15693371 -0.1977545 0.42620975
0.14562999 -0.20807421 0.44824031
0.13302664 -0.2127077 0.47068095
0.12119018 -0.22137415 0.49308911
0.11337182 -0.25089198 0.51523966
0.17265843 -0.19063997 0.34739602
0.15775596 -0.18394768 0.37030983
0.14507493 -0.18721604 0.39239025
0.13393424 -0.19798821 0.41406527
0.1226939 -0.2088567 0.43593395
0.1119148 -0.22264695 0.45787555
0.1041895 -0.25300974 0.47950155
0.16179 -0.18488681 0.3139416
0.14700291 -0.17823124 0.33681077
0.13471982 -0.18305755 0.35857749
0.12349099 -0.1932556 0.3800236
0.11216304 -0.20352012 0.40165275
0.10109922 -0.21571803 0.42335865
0.094220489 -0.25069261 0.44418114
0.15108575 -0.17935663 0.28087085
0.13637704 -0.17257428 0.30371445
0.12445968 -0.1788668 0.32513487
0.11328571 -0.1891759 0.34630829
0.10197565 -0.19936848 0.36767966
0.091902494 -0.21661019 0.38873065
0.084626526 -0.24992222 0.40908888
0.14051028 -0.17390132 0.24818933
0.12587978 -0.16699409 0.27101177
0.11431155 -0.17473066 0.29204988
0.10317948 -0.18509179 0.31295568
0.091898888 -0.19527072 0.33406782
0.082933083 -0.21838546 0.35425431
0.12960035 -0.16633815 0.21620685
0.11542194 -0.16106665 0.2387529
0.10428657 -0.17071408 0.25930786
0.093156055 -0.18092656 0.2799716
0.081927076 -0.19120675 0.30081338
0.073478386 -0.21722513 0.32027149
0.14224949 -0.20781684 0.15475547
0.11894557 -0.15939987 0.18457097
0.10548572 -0.15716821 0.2065919
0.094613105 -0.16799122 0.22673506
0.083427906 -0.17779231 0.24720871
0.07236582 -0.18883175 0.267708
0.064108104 -0.21611333 0.28656244
0.13005356 -0.19421762 0.1242398
0.10861115 -0.15344977 0.15318918
0.095752209 -0.15381104 0.17468476
0.084912255 -0.16467685 0.19456571
0.073861763 -0.1750471 0.21471465
0.063389316 -0.18921494 0.23453313
0.055065036 -0.21643478 0.25294596
0.11807685 -0.18085539 0.094279647
0.098957971 -0.15035838 0.12166929
0.086221442 -0.15103084 0.14299953
0.075295284 -0.1613301 0.1627264
0.064358711 -0.17217785 0.18255115
0.054473132 -0.18958598 0.20158786
0.10969788 -0.18454266 0.061360896
0.089350536 -0.1470502 0.090505242
0.076948524 -0.14915669 0.11144739
0.065973997 -0.15909755 0.13100731
0.05496794 -0.16945726 0.15067315
0.045616612 -0.1899451 0.16887051
0.080644742 -0.14797378 0.058757663
0.068435028 -0.15093368 0.079430044
0.056781456 -0.1571334 0.099525094
0.045740187 -0.16718841 0.11901516
0.03684628 -0.19045264 0.13635093
0.072761893 -0.15296561 0.02629298
0.060458243 -0.15536928 0.047015548
0.049095139 -0.16320765 0.066651821
0.037615761 -0.17085677 0.08646512
0.028237432 -0.19156981 0.10393292
0.065366782 -0.16045761 -0.0066760182
0.051686093 -0.15520513 0.015764832
0.041956827 -0.17232585 0.033171237
0.034221381 -0.20233715 0.048148572
0.036536261 -0.19154382 -0.0026860833
0.027826756 -0.21665359 0.013096809
0.019820064 -0.24782228 0.028012931
0.01935187 -0.32988274 0.032925248
0.0072560608 -0.30976963 0.0039397478
0.4430435 -0.11098236 1.7280595
0.41291022 -0.0938375 1.7160864
0.38321754 -0.090518951 1.7137688
0.47257495 -0.11170655 1.6933179
0.44200268 -0.080972552 1.6723202
0.41251001 -0.073154092 1.6669786
0.38321745 -0.074779987 1.6680894
0.35374677 -0.087073207 1.6764882
0.47152463 -0.09484601 1.6471246
0.44153252 -0.07300061 1.6325274
0.41229069 -0.066387117 1.628108
0.38321745 -0.067237258 1.6286762
0.354027 -0.075588882 1.6342568
0.32423073 -0.099368393 1.6501466
0.5026868 -0.13939375 1.6418693
0.47084913 -0.087581873 1.6080183
0.44116017 -0.068714678 1.5956913
0.41210899 -0.062419474 1.5915785
0.38321745 -0.063618839 1.592362
0.35421526 -0.071148396 1.5972815
0.32479334 -0.087706506 1.6080997
0.5016396 -0.12930757 1.6007211
0.4702931 -0.083318353 1.5713515
0.44085154 -0.066825509 1.5608189
0.41195238 -0.060306609 1.5566559
0.38321757 -0.061053872 1.557133
0.35438302 -0.068207085 1.5617012
0.32514185 -0.084317863 1.5719898
0.29251185 -0.17920572 1.632587
0.50094378 -0.12602621 1.5644245
0.47002691 -0.086610377 1.5398283
0.44069234 -0.070762813 1.5299392
0.411883 -0.06503737 1.5263664
0.38321757 -0.065925658 1.5269207
0.35446262 -0.072152913 1.5308065
0.32531545 -0.087772787 1.5405538
0.29427791 -0.1431374 1.5751023
0.50076205 -0.13289028 1.534713
0.46986866 -0.092719197 1.5102267
0.44065192 -0.079398394 1.5021069
0.411883 -0.075265825 1.4995879
0.38321742 -0.075762451 1.4998906
0.35447615 -0.081332624 1.5032859
0.32536751 -0.096016765 1.5122367
0.29430869 -0.15289229 1.5469053
0.50106585 -0.14947933 1.5108942
0.47014329 -0.11037713 1.48762
0.44110119 -0.10769653 1.4860245
0.41215777 -0.10757208 1.4859505
0.38321751 -0.11020041 1.4875149
0.35425487 -0.10934788 1.4870074
0.32513416 -0.11571527 1.4907973
0.29359415 -0.18259794 1.5306067
0.49917597 -0.1218766 1.4612263
0.4692359 -0.09631604 1.4463756
0.44045603 -0.091996253 1.4438658
0.41175956 -0.085784972 1.4402571
0.3832176 -0.08526808 1.4399568
0.35461712 -0.090468347 1.4429781
0.32597795 -0.092036963 1.4438895
0.29670852 -0.1095072 1.4540397
0.26780137 -0.11093611 1.4548699
0.58224237 -0.087043107 1.4085332
0.55294895 -0.075411022 1.4019388
0.52485013 -0.078486025 1.403682
0.49671993 -0.082464755 1.4059377
0.46825233 -0.079981387 1.4045298
0.43983981 -0.07724303 1.4029773
0.41154757 -0.078776777 1.4038469
0.38321739 -0.07858628 1.4037389
0.35490891 -0.077032626 1.4028581
0.32653123 -0.079830647 1.4044443
0.29808727 -0.082555115 1.4059889
0.26965347 -0.083713233 1.4066454
0.24085268 -0.09035188 1.410409
0.21048012 -0.116009 1.4249544
0.6102562 -0.092933476 1.37962
0.58068687 -0.079102933 1.3719723
0.55250263 -0.079452515 1.3721657
0.524248 -0.078793228 1.3718011
0.49619332 -0.081873834 1.3735045
0.46784267 -0.078983009 1.371906
0.43956086 -0.075989902 1.3702511
0.41140863 -0.077575207 1.3711276
0.38321751 -0.078253925 1.3715029
0.35505226 -0.075471818 1.3699646
0.32681459 -0.078413665 1.3715913
0.29850492 -0.081353128 1.3732166
0.26992083 -0.088402152 1.3771144
0.24168816 -0.086912394 1.3762906
0.21258366 -0.097746551 1.3822813
0.63713968 -0.08946991 1.3457818
0.6079188 -0.07917726 1.3402328
0.5798108 -0.078938603 1.3401042
0.55282068 -0.093854547 1.3481455
0.52432644 -0.090142548 1.3461444
0.49575141 -0.082923949 1.3422527
0.46754882 -0.08103919 1.3412367
0.43937582 -0.078481197 1.3398576
0.41131762 -0.080192506 1.3407803
0.38321736 -0.082385063 1.3419623
0.35514432 -0.077994108 1.3395951
0.32701799 -0.080162585 1.340764
0.29881555 -0.082963884 1.3422743
0.27039412 -0.088837683 1.3454409
0.24257252 -0.082554698 1.3420537
0.21386814 -0.090393782 1.3462799
0.66664243 -0.11012036 1.3249857
0.63658726 -0.094497323 1.3167776
0.60682601 -0.077984035 1.3081017
0.57977331 -0.088520348 1.3136374
0.55322778 -0.10950994 1.3246651
0.52442795 -0.10187823 1.3206553
0.49536124 -0.084951103 1.3117621
0.46725795 -0.083110809 1.3107953
0.43920016 -0.081293523 1.3098404
0.41124323 -0.084115207 1.3113229
0.38321745 -0.086415291 1.3125314
0.35522911 -0.081055522 1.3097154
0.32719198 -0.083051264 1.310764
0.2990672 -0.086116374 1.3123744
0.27072009 -0.092211068 1.3155763
0.24323893 -0.081650853 1.3100282
0.21521848 -0.081988394 1.3102056
0.18445083 -0.11445218 1.3272616
0.69352353 -0.10928035 1.2929032
0.66345423 -0.093945563 1.2850552
0.63556802 -0.095204949 1.2856996
0.60891432 -0.10948271 1.2930069
0.58047044 -0.10675257 1.2916095
0.55467033 -0.13944644 1.3083417
0.52424055 -0.10886544 1.2926909
0.49532962 -0.094305158 1.2852392
0.46712717 -0.089508891 1.2827845
0.43912059 -0.087997198 1.2820108
0.41121796 -0.092029214 1.2840743
0.38321748 -0.093356371 1.2847536
0.35526225 -0.088305354 1.2821686
0.3272649 -0.090036392 1.2830545
0.29908535 -0.095624924 1.2859147
0.27033514 -0.11018163 1.2933645
0.24356633 -0.086239696 1.2811114
0.21617305 -0.078860879 1.2773349
0.18441603 -0.12499434 1.3009454
0.69009036 -0.093498111 1.2536705
0.66217709 -0.093368828 1.2536061
0.63545668 -0.10418582 1.2589961
0.60930878 -0.12363392 1.2686871
0.52447903 -0.12287933 1.268311
0.49541157 -0.10600346 1.2599019
0.46713585 -0.099729121 1.2567754
0.43905139 -0.095110059 1.2544737
0.41118065 -0.09891957 1.256372
0.38321739 -0.10051894 1.257169
0.35528412 -0.096464753 1.2551488
0.32729056 -0.098959446 1.2563919
0.29906896 -0.10608399 1.2599421
0.26836979 -0.1609419 1.2872777
0.24431744 -0.083765984 1.2488209
0.21729454 -0.073314071 1.2436128
0.18755513 -0.09799099 1.2559092
0.71675068 -0.094877243 1.2234509
0.6890651 -0.095700204 1.22385
0.66193855 -0.10133779 1.2265838
0.63610858 -0.12020838 1.2357347
0.5248512 -0.13915163 1.244921
0.49549422 -0.11772901 1.2345325
0.46719122 -0.11124742 1.2313893
0.4390448 -0.10479146 1.2282586
0.41117117 -0.10812527 1.2298753
0.38321748 -0.10846621 1.2300406
0.35530543 -0.10467154 1.2282004
0.32726362 -0.11005163 1.2308095
0.29904425 -0.11677927 1.234072
0.26788703 -0.18122387 1.265323
0.24495605 -0.083053946 1.2177174
0.21839157 -0.067976832 1.2104061
0.1893141 -0.087063432 1.2196617
0.74273539 -0.093167126 1.1920016
0.71339405 -0.081431031 1.186466
0.68867719 -0.10267657 1.1964869
0.66441095 -0.13193482 1.2102873
0.5252099 -0.15525043 1.2212847
0.49561793 -0.13032621 1.2095286
0.4672235 -0.12213403 1.2056646
0.43906614 -0.11564553 1.2026041
0.41116941 -0.11794877 1.2036905
0.38321742 -0.11618817 1.2028601
0.35529655 -0.11536437 1.2024715
0.32722861 -0.12149763 1.2053645
0.29896769 -0.12892294 1.2088667
0.26711142 -0.20770907 1.2460282
0.2451781 -0.089212358 1.1901363
0.21927041 -0.065544009 1.1789725
0.19076067 -0.079686463 1.1856431
0.74148822 -0.094987392 1.1624768
0.71228945 -0.083526075 1.1572213
0.6836251 -0.074057817 1.1528798
0.65649843 -0.075593352 1.153584
0.52554858 -0.17106384 1.1973603
0.49589336 -0.14612991 1.1859272
0.46732423 -0.13493979 1.1807961
0.43907896 -0.12614453 1.1767633
0.41113389 -0.12493378 1.176208
0.38321742 -0.12426835 1.175903
0.35529613 -0.12535739 1.1764023
0.32723245 -0.13133472 1.1791431
0.29889056 -0.14109904 1.1836205
0.2678107 -0.20340395 1.2121892
0.22010228 -0.063662887 1.1481135
0.19226144 -0.071512759 1.1517129
0.74291348 -0.11405689 1.140846
0.71220446 -0.092714965 1.1313384
0.68306553 -0.079517007 1.1254586
0.65468335 -0.070054531 1.121243
0.6273579 -0.068379998 1.120497
0.60071808 -0.073507428 1.1227813
0.49607664 -0.1600439 1.1613333
0.467123 -0.13929832 1.1520913
0.43893659 -0.13011438 1.1479998
0.41105819 -0.12852192 1.1472902
0.38321751 -0.010164201 1.0945618
0.35537577 -0.12861258 1.1473306
0.32739455 -0.13448966 1.149949
0.29900855 -0.14781719 1.1558864
0.26850146 -0.1991505 1.1787554
0.22062318 -0.066049039 1.1194587
0.1935392 -0.065867782 1.1193779
0.68429863 -0.098727465 1.1040965
0.65438354 -0.077205062 1.0947864
0.62638712 -0.068934321 1.0912087
0.5985918 -0.060723305 1.0876567
0.57176256 -0.061840057 1.0881398
0.49575052 -0.16321248 1.1319914
0.46701175 -0.14613813 1.1246054
0.4388276 -0.13544542 1.1199801
0.411015 -0.13482004 1.1197095
0.38321757 -0.024028957 1.0717835
0.35542271 -0.13457799 1.1196048
0.32749033 -0.14039963 1.1221231
0.29923686 -0.15139306 1.1268787
0.22080319 -0.073181868 1.0930461
0.19454557 -0.063374698 1.0888036
0.16545576 -0.085970581 1.0985782
0.59847474 -0.069086075 1.0619851
0.57054746 -0.056704998 1.056788
0.54272652 -0.041703105 1.0504907
0.5148297 -0.01940906 1.0411325
0.48777825 -0.0039260983 1.0346332
0.46128389 0.0061026812 1.0304234
0.43516377 0.010265738 1.0286759
0.41081491 -0.12771833 1.086597
0.38321754 -0.015511215 1.0394962
0.35561237 -0.12837708 1.0868735
0.32781133 -0.13670564 1.0903696
0.29911587 -0.16480666 1.1021655
0.21988028 -0.095906794 1.0732436
0.19449371 -0.073620737 1.0638887
0.16613474 -0.088471949 1.0701227
0.53994477 -0.011635929 1.0095553
0.51345557 -0.005359143 1.0070003
0.48732316 -0.0035482049 1.0062631
0.46133304 -0.0045825541 1.0066842
0.43538612 -0.0084887445 1.0082742
0.40923846 -0.0030757785 1.0060709
0.3832176 0.012163103 0.99986768
0.35690996 -0.027534664 1.0160271
0.32849255 -0.11753112 1.0526612
0.30062798 -0.13180637 1.058472
0.19351234 -0.095202625 1.0435721
0.16647595 -0.094516575 1.0432928
0.53992379 -0.020659268 0.98503631
0.51433802 -0.029773831 0.98863167
0.48752239 -0.01710403 0.98363394
0.46381453 -0.084734321 1.0103115
0.43699643 -0.086767912 1.0111136
0.41021031 -0.095630825 1.0146097
0.38321745 -0.020785332 0.98508602
0.35622713 -0.095409214 1.0145223
0.32910687 -0.10097742 1.0167187
0.30162123 -0.11326957 1.0215676
0.27026686 -0.20227289 1.0566759
0.16610938 -0.10810941 1.019532
0.13704365 -0.12645394 1.0267682
0.54420334 -0.091336071 0.98407429
0.51613414 -0.070029974 0.97593606
0.48931742 -0.065014362 0.9740203
0.46276751 -0.064295709 0.97374582
0.43632966 -0.067687929 0.97504151
0.40981936 -0.071625352 0.97654545
0.38321745 -0.07261169 0.97692221
0.35657936 -0.074747384 0.97773796
0.32979769 -0.080922306 0.98009658
0.30273014 -0.091173708 0.98401225
0.27456662 -0.11987674 0.99497586
0.16463047 -0.13369483 1.0002539
0.13781396 -0.12885034 0.99840349
0.57447797 -0.1434046 0.97471446
0.54274285 -0.079882681 0.95123839
0.5150007 -0.059936941 0.94386697
0.48855597 -0.058031738 0.94316286
0.46217763 -0.05677551 0.9426986
0.43594611 -0.06059444 0.94410998
0.40963376 -0.065076888 0.94576657
0.38321754 -0.066407382 0.94625831
0.35682654 -0.062893748 0.94495976
0.33040383 -0.064268172 0.94546771
0.3037712 -0.070772648 0.94787157
0.27616784 -0.094987094 0.95682061
0.1374782 -0.14180398 0.97412288
0.10840398 -0.15709233 0.97977304
0.57025474 -0.10082412 0.93049353
0.5412823 -0.06825453 0.91885692
0.51430362 -0.057247996 0.9149245
0.48799735 -0.055318236 0.914235
0.46173596 -0.053391814 0.91354668
0.43567729 -0.058342934 0.91531569
0.40947843 -0.061034322 0.91627723
0.38321748 -0.060499132 0.91608602
0.35696185 -0.060582221 0.91611576
0.33066064 -0.062557757 0.9168216
0.30431911 -0.064379454 0.91747242
0.27709448 -0.084442973 0.92464077
0.24747777 -0.13797861 0.9437682
0.13544837 -0.17110956 0.95560539
0.10935709 -0.15863061 0.95114684
0.56827539 -0.085730016 0.89703369
0.54032069 -0.063697577 0.8894304
0.5139299 -0.060092509 0.88818634
0.48776084 -0.059514165 0.88798678
0.46159089 -0.058523417 0.88764489
0.43558842 -0.063835979 0.88947821
0.40945083 -0.06800741 0.89091772
0.38321748 -0.061581016 0.88870001
0.35708922 -0.058853626 0.88775879
0.33092853 -0.060267031 0.88824654
0.30471656 -0.062224746 0.88892221
0.27781183 -0.078289092 0.89446592
0.2493508 -0.11503899 0.90714812
0.10856685 -0.17528462 0.92793852
0.079639465 -0.1868636 0.93193436
0.56718683 -0.081562817 0.8678081
0.53964603 -0.063205123 0.86169493
0.51355356 -0.062838316 0.8615728
0.48747003 -0.062480867 0.86145371
0.46146667 -0.064223468 0.86203408
0.43556297 -0.072069943 0.86464697
0.40940207 -0.073096216 0.86498868
0.38321754 -0.069088757 0.8636542
0.35710663 -0.066648901 0.86284173
0.33100998 -0.066032827 0.86263657
0.30487531 -0.066934049 0.86293668
0.27831882 -0.076607049 0.86615783
0.25104845 -0.094899356 0.87224925
0.10483161 -0.21775144 0.91315961
0.081155449 -0.18465734 0.90213907
0.052562207 -0.19291544 0.90488905
0.5957576 -0.11607033 0.85132378
0.56622899 -0.078924835 0.83939958
0.53927696 -0.067106783 0.83560586
0.5132525 -0.066850245 0.83552349
0.48723418 -0.066602886 0.83544415
0.46141917 -0.07213974 0.8372215
0.4356266 -0.084195912 0.84109175
0.40945974 -0.087512016 0.84215617
0.38321754 -0.077139378 0.83882648
0.35711762 -0.07500577 0.83814156
0.33103254 -0.074360132 0.83793432
0.3049618 -0.073723853 0.83773005
0.27883905 -0.074544549 0.8379935
0.25161442 -0.094388902 0.84436381
0.22203881 -0.1420272 0.85965627
0.019801944 -0.23791015 0.89043593
0.59357303 -0.1014744 0.81906289
0.56533796 -0.07703203 0.81150734
0.53892452 -0.071210086 0.80970764
0.51295877 -0.070953727 0.80962837
0.48715577 -0.074154019 0.81061769
0.46137321 -0.08009249 0.81245339
0.43585464 -0.10360163 0.81972045
0.4095228 -0.10243398 0.81935954
0.38321754 -0.088105083 0.8149302
0.35713059 -0.083179891 0.81340778
0.33105507 -0.082670867 0.81325036
0.30499578 -0.082032681 0.81305313
0.27895024 -0.081404209 0.81285882
0.25221813 -0.093135536 0.81648523
0.22384305 -0.12509918 0.82636571
0.022316903 -0.23082805 0.85904849
0.59229922 -0.096761584 0.79030859
0.56448686 -0.075551271 0.7840023
0.53857386 -0.075294852 0.78392607
0.51266664 -0.075038433 0.78384984
0.48711401 -0.082504272 0.78606957
0.46150798 -0.093362093 0.78929782
0.4363896 -0.13666993 0.80217409
0.40959814 -0.11848229 0.79676652
0.38321754 -0.10010576 0.79130286
0.35710055 -0.0951491 0.78982913
0.3310951 -0.090213716 0.78836173
0.30503052 -0.090306282 0.78838927
0.27899718 -0.089666545 0.78819907
0.25271344 -0.093715489 0.7894029
0.22518809 -0.11473441 0.79565221
0.62086618 -0.13010162 0.77275264
0.59127504 -0.094708443 0.76264381
0.56407726 -0.079590142 0.75832582
0.53819489 -0.078922093 0.75813496
0.512586 -0.08284384 0.75925505
0.4870759 -0.0909217 0.76156223
0.46179384 -0.11114591 0.76733857
0.43759903 -0.19990605 0.79268992
0.40980706 -0.14647621 0.77742946
0.38321754 -0.11552805 0.76859021
0.35708541 -0.10580635 0.76581353
0.3310504 -0.10149801 0.76458299
0.30510977 -0.097261488 0.76337302
0.2790437 -0.097930849 0.76356417
0.25303632 -0.097289383 0.76338094
0.22585677 -0.11422586 0.76821828
0.1966116 -0.15255028 0.77916431
0.61913812 -0.12239158 0.74339116
0.59043545 -0.094622374 0.73578227
0.56361496 -0.082915664 0.73257458
0.53780884 -0.08239454 0.73243177
0.51250553 -0.090639353 0.7346909
0.48703814 -0.099342406 0.73707557
0.46199155 -0.12637115 0.74448156
0.38321739 -0.13878477 0.74788296
0.35702363 -0.12065256 0.74291468
0.33103403 -0.11152655 0.74041408
0.30509853 -0.10688764 0.73914301
0.27914363 -0.10499442 0.73862422
0.25309435 -0.10554433 0.73877496
0.22643147 -0.11503679 0.74137592
0.19802213 -0.14408195 0.74933445
0.61746645 -0.11510193 0.7145347
0.58970284 -0.095659912 0.70943141
0.5631457 -0.086105406 0.70692348
0.53747827 -0.086653531 0.70706737
0.51236016 -0.097262919 0.70985216
0.48725492 -0.11346465 0.71410495
0.46237028 -0.14704871 0.7229203
0.38321757 -0.16561788 0.72779453
0.35687235 -0.14354229 0.72199988
0.33088487 -0.12752664 0.71779603
0.30502474 -0.11838365 0.71539611
0.27923036 -0.11233395 0.71380812
0.25321221 -0.11271703 0.71390867
0.22698188 -0.11614168 0.71480763
0.19933616 -0.13670355 0.72020483
0.61617756 -0.11150724 0.68698621
0.58897609 -0.096699119 0.68326843
0.56267893 -0.089278817 0.68140554
0.53721577 -0.091890156 0.68206114
0.51214451 -0.10259789 0.68474942
0.48726839 -0.1230458 0.68988311
0.35671541 -0.16705829 0.70093292
0.33063069 -0.14829075 0.69622111
0.30480108 -0.13438636 0.69273025
0.27908719 -0.12483114 0.69033134
0.25332844 -0.11990458 0.68909442
0.22731632 -0.12041968 0.68922377
0.20009449 -0.13633156 0.69321865
0.17119528 -0.1671266 0.70095003
0.61532396 -0.11217839 0.66075242
0.58825368 -0.097721875 0.65728682
0.56221443 -0.092435718 0.65601963
0.53695333 -0.097099721 0.65713763
0.51192898 -0.10790575 0.65972817
0.48728666 -0.13274258 0.6656822
0.33044064 -0.16625613 0.67371625
0.30467218 -0.1475935 0.66924226
0.27895865 -0.13702214 0.66670811
0.253447 -0.12703258 0.66431332
0.22747745 -0.12726718 0.66436958
0.20072567 -0.13752377 0.66682839
0.17249101 -0.16195667 0.6726855
0.64562428 -0.16227818 0.64600462
0.61447585 -0.11283559 0.63470817
0.58753729 -0.098746717 0.63148916
0.56186849 -0.097078502 0.63110793
0.5366925 -0.10230094 0.63230121
0.51182997 -0.11529458 0.63526994
0.48789001 -0.15569973 0.64450163
0.33028758 -0.18261659 0.65065157
0.30439776 -0.16522884 0.64667881
0.27885336 -0.14870983 0.64290458
0.25332999 -0.13841528 0.64055252
0.22761869 -0.13439202 0.6396333
0.20107283 -0.1423291 0.64144671
0.17370073 -0.15764546 0.64494616
0.64061391 -0.12603462 0.61158007
0.61363453 -0.11349702 0.60885543
0.58682489 -0.099755347 0.60586917
0.56156588 -0.10225004 0.60641128
0.53643191 -0.1074754 0.60754681
0.51184636 -0.12477016 0.61130536
0.30417001 -0.1815148 0.62363702
0.27890795 -0.1567778 0.61826122
0.25317007 -0.1505971 0.61691797
0.22776058 -0.14149451 0.61493981
0.20141803 -0.1471256 0.61616355
0.17435549 -0.15954047 0.6188615
0.14079651 -0.2348991 0.63523841
0.63965869 -0.12649155 0.58573478
0.61279953 -0.1141538 0.58319014
0.58625257 -0.10229939 0.58074522
0.56126493 -0.10741335 0.58179998
0.53617287 -0.11264127 0.58287823
0.51223129 -0.14098614 0.58872426
0.30394065 -0.19790506 0.60046363
0.27873516 -0.1700291 0.59471428
0.25321278 -0.15909618 0.59245944
0.22768161 -0.15194201 0.59098387
0.20176266 -0.15189463 0.59097409
0.1747534 -0.16431075 0.59353495
0.14547114 -0.1970489 0.60028702
0.63865542 -0.12643713 0.55998141
0.61191231 -0.1142118 0.5575943
0.58577681 -0.10589927 0.55597115
0.5609169 -0.1119296 0.55714858
0.53591406 -0.11778075 0.5582912
0.51476276 -0.19664007 0.5736894
0.27815184 -0.19272834 0.57292551
0.25328058 -0.16713077 0.56792736
0.22766861 -0.16139144 0.56680667
0.20210585 -0.15664548 0.56587994
0.17514998 -0.16906279 0.56830454
0.14800432 -0.18065369 0.57056785
0.63765985 -0.1263833 0.53442878
0.61095428 -0.11347747 0.53204942
0.58521891 -0.10851258 0.53113413
0.56042647 -0.11453325 0.53224415
0.53605866 -0.12908119 0.53492618
0.27767238 -0.21313804 0.55042303
0.25334764 -0.17516679 0.54342258
0.22774878 -0.16941094 0.54236144
0.20227349 -0.1636734 0.54130363
0.1757426 -0.17152077 0.54275042
