# .PCD v0.7 - Point Cloud Data file format
VERSION 0.7
FIELDS x y z
SIZE 4 4 4
TYPE F F F
COUNT 1 1 1
WIDTH 1611
HEIGHT 1
VIEWPOINT 0 0 0 1 0 0 0
POINTS 1611
DATA ascii
64.9133 26.049021 63.437157
63.778385 25.635166 63.14814
62.654102 25.559464 63.095276
61.527538 25.81321 63.272476
60.383797 26.48131 63.739044
59.180626 28.245684 64.971191
66.099648 27.111609 65.538322
64.923782 26.052071 64.782211
63.783569 25.635517 64.484947
62.654102 25.559853 64.430954
61.522301 25.816711 64.614258
60.373077 26.491512 65.09581
59.162613 28.29781 66.384827
66.116302 27.129765 66.923248
64.934372 26.055542 66.140091
63.788799 25.635872 65.834137
62.654102 25.560635 65.779282
61.517021 25.81986 65.968269
60.362244 26.502213 66.465729
59.144444 28.349659 67.812599
66.133125 27.148102 68.321625
64.945084 26.059444 67.511002
63.794075 25.635847 67.195595
62.654099 25.561428 67.140175
61.511703 25.822653 67.334686
60.351284 26.513817 67.849327
64.955917 26.06496 68.896049
63.799389 25.635429 68.569473
62.654102 25.562223 68.513809
61.506325 25.825855 68.714249
60.33831 26.598747 69.301888
63.808571 25.924877 70.181213
62.654106 25.815254 70.09613
61.494957 26.280146 70.456963
89.084846 34.792278 56.785851
86.886703 34.660221 56.545952
86.135376 33.61615 56.563164
82.312012 34.639435 57.280048
80.050896 34.678822 56.996998
67.016304 42.365879 2.8260002
77.976242 34.632607 56.746063
65.053497 42.458164 3.3801498
66.790642 41.204208 3.6996956
76.029434 34.535225 56.516331
75.91333 34.619034 57.699234
63.48188 42.303226 2.720871
63.764423 42.094597 3.644783
65.838715 40.562973 3.8045807
74.156418 34.421314 56.297462
73.071579 35.22234 57.256939
61.176395 42.732082 3.4687729
63.516766 40.964596 3.4474487
65.132111 39.744663 3.8047295
72.397797 34.257507 56.098007
71.117203 35.224632 56.999577
59.483341 42.743439 2.9313736
60.650394 41.842064 3.4011459
63.651287 39.524334 3.0737877
64.422165 38.928947 3.8063393
67.018066 36.924007 3.7848892
69.394852 35.088303 29.20734
68.42659 35.83614 30.449421
68.376541 35.874794 31.589478
68.376541 35.874794 32.724739
68.376541 35.874794 33.860001
68.36734 35.881897 34.99564
68.36734 35.881897 36.130775
68.36734 35.881897 37.265919
68.591888 35.708466 40.677486
68.8582 35.502781 41.826645
66.180901 37.570587 53.873585
70.383293 34.324883 55.8424
68.981926 35.407223 56.697964
69.349274 35.123505 57.927078
58.406837 42.303493 3.1319122
59.483997 41.452763 3.6333008
63.848705 38.005562 2.6646805
64.11795 37.792915 3.6284904
66.28894 36.078285 3.7847366
68.034157 34.699932 13.303848
67.386337 35.211578 14.632706
67.268028 35.305016 15.797239
67.150063 35.398178 16.958418
67.032082 35.491364 18.116335
66.914795 35.583992 19.270832
66.797852 35.676353 20.422001
66.680885 35.768734 21.569946
66.564606 35.860569 22.714525
66.448311 35.952415 23.855892
66.388519 35.999641 24.984669
66.34259 36.035919 26.109688
66.297058 36.071877 27.233383
66.251579 36.107796 28.355804
66.206154 36.143673 29.476969
66.160423 36.17979 30.596905
66.147064 36.190338 31.712893
66.147423 36.19006 32.82756
66.147423 36.190056 33.942257
65.832024 36.439156 35.070038
65.832375 36.438881 36.180367
65.832367 36.438881 37.290714
66.667358 35.779419 38.401051
66.667358 35.779419 39.522938
66.141098 36.195053 40.630276
66.176598 36.167011 41.746365
66.212494 36.138664 42.863449
66.248055 36.110577 43.981506
66.283653 36.082466 45.100548
66.319641 36.054043 46.220608
66.355301 36.025879 47.341637
66.394882 35.994617 48.46413
66.436272 35.961926 49.587975
66.477707 35.929203 50.712959
66.51918 35.896446 51.839111
64.808937 37.247181 52.651588
64.199196 37.728748 53.629772
64.182465 37.741962 54.714069
65.027374 37.074657 55.988495
66.724709 35.734123 57.486603
66.725418 35.733562 58.609459
57.487659 41.751221 3.2592964
58.471481 40.956741 3.7967033
60.721775 39.139515 3.7785263
63.932503 36.546692 3.3943825
65.560516 35.231987 3.7842865
65.792198 35.044895 4.8039932
65.769356 35.063339 5.933136
65.72406 35.099918 7.0704155
65.678467 35.136738 8.2065392
65.633278 35.173233 9.3412437
65.588135 35.209682 10.474667
65.542694 35.24638 11.606943
65.497658 35.282753 12.737812
65.452667 35.319084 13.867416
65.407387 35.355652 14.995846
65.362495 35.391899 16.122904
65.317665 35.428104 17.248695
65.27253 35.46455 18.373306
65.227798 35.500679 19.496571
65.183105 35.536766 20.618576
65.138474 35.572807 21.739317
65.093544 35.609093 22.858883
65.049011 35.645054 23.97711
65.004524 35.680981 25.09409
64.959747 35.71714 26.209875
64.915359 35.752987 27.32436
64.871025 35.788788 28.437595
64.826401 35.824825 29.549622
64.782166 35.860546 30.660374
64.770851 35.869682 31.767128
64.770851 35.869682 32.872791
64.715042 35.914753 33.981556
63.815281 36.641354 35.124081
63.815277 36.641357 36.216404
63.815281 36.641354 37.308727
64.519478 36.072678 38.401047
64.519478 36.072678 39.503204
64.130562 36.386749 40.594494
64.183182 36.344254 41.69342
64.236221 36.301426 42.793839
64.288986 36.258816 43.89571
64.342163 36.215874 44.999092
64.395065 36.173145 46.103931
64.448387 36.130089 47.210297
64.501442 36.087246 48.318108
64.554901 36.044071 49.427464
64.608101 36.001114 50.538269
64.662048 35.957546 51.650684
63.240986 37.105125 52.497108
62.559296 37.655624 53.448277
62.419353 37.768635 54.493801
62.961899 37.330505 55.687748
64.934631 35.737427 57.236012
64.941505 35.731873 58.345673
64.941162 35.732147 59.453621
64.620041 35.99147 61.575603
63.670414 36.758343 62.387703
64.487831 36.098236 68.147102
57.054741 40.806919 2.1422234
56.864521 40.96397 3.2431412
57.809765 40.18354 3.7951889
60.036388 38.345161 3.7785263
63.677887 35.338608 3.1871262
64.578346 34.595158 3.8945694
64.578346 34.595158 5.0076828
64.559074 34.611065 6.1286621
64.530891 34.634338 7.2526131
64.503059 34.657314 8.3756371
64.474907 34.680557 9.4979935
64.447113 34.703506 10.619429
64.419006 34.726711 11.740192
64.391251 34.749626 12.86005
64.363182 34.772804 13.979221
64.335472 34.795681 15.0975
64.307442 34.818825 16.215084
64.27977 34.841675 17.331783
64.25177 34.864788 18.44779
64.224136 34.8876 19.562916
64.19619 34.910679 20.677338
64.168594 34.933464 21.790895
64.140678 34.956512 22.903748
64.113121 34.979263 24.015739
64.085251 35.002274 25.127005
64.057396 35.025272 26.237495
64.029892 35.047974 27.347145
64.002083 35.070938 28.456055
63.974625 35.093609 29.564152
63.946846 35.116547 30.671501
63.940071 35.122139 31.776299
63.940075 35.122131 32.880421
62.77174 36.086754 34.050343
62.097248 36.643639 35.166508
62.097244 36.643642 36.24469
62.097572 36.643372 37.322868
62.698544 36.147186 38.401051
62.698544 36.14719 39.487701
62.387283 36.404175 40.56559
62.439365 36.361176 41.650047
62.49152 36.318115 42.735981
62.543415 36.275269 43.823368
62.595707 36.232094 44.912254
62.648075 36.188858 46.002605
62.700512 36.145561 47.094452
62.753021 36.102211 48.187782
62.805599 36.0588 49.2826
62.858578 36.01506 50.37896
62.911301 35.971527 51.476761
61.756874 36.924664 52.355118
60.977768 37.567921 53.274948
60.703854 37.794079 54.279526
61.046486 37.511185 55.415272
63.180977 35.748871 56.989521
63.201897 35.731602 58.088261
63.201569 35.731873 59.181908
63.990555 35.080456 60.497795
62.31189 36.466423 61.106331
61.756874 36.924664 62.015633
61.827656 36.866226 63.111942
61.916561 36.792824 64.21637
62.170277 36.583344 65.381302
62.79179 36.070202 66.688019
62.352821 36.432629 67.609116
62.030151 36.699036 68.56369
62.211704 36.549141 69.715057
56.9249 39.598579 2.8867607
57.367607 39.224907 3.6875725
59.351303 37.550552 3.7783813
63.485371 34.061157 2.9477921
63.797012 33.798115 3.9184303
63.796673 33.798401 5.0309181
63.777271 33.814777 6.1512489
63.750732 33.837173 7.2738647
63.726597 33.857548 8.3948154
63.70248 33.877903 9.5150642
63.678028 33.89854 10.634754
63.653938 33.918877 11.753624
63.629864 33.939198 12.871798
63.605461 33.959793 13.989393
63.581413 33.980091 15.106194
63.557041 34.000664 16.222397
63.533028 34.020931 17.337809
63.509022 34.041195 18.452541
63.484692 34.061729 19.566669
63.46072 34.081963 20.680027
63.436768 34.10218 21.792694
63.412487 34.122673 22.904751
63.388554 34.142876 24.016048
63.364643 34.163059 25.126667
63.340405 34.183514 26.236652
63.316521 34.203674 27.345901
63.292652 34.223824 28.45447
63.268463 34.24424 29.562389
62.133205 35.202465 30.780146
62.302853 35.059273 31.854382
62.302853 35.059273 32.945496
61.101345 36.073414 34.1049
60.571499 36.520634 35.201523
60.571503 36.520634 36.268032
60.571503 36.520634 37.334541
61.097534 36.07663 38.401054
61.097534 36.07663 39.475037
60.816738 36.313641 40.541042
60.85677 36.27985 41.612743
60.896843 36.246025 42.685589
60.936966 36.212162 43.759567
60.977119 36.178268 44.834702
61.020802 36.141396 45.91132
61.066444 36.102875 46.989395
61.112137 36.064304 48.068783
61.15757 36.025955 49.149429
61.203373 35.987297 50.23143
61.248913 35.948856 51.314686
60.333763 36.721298 52.221779
59.564854 37.3703 53.131947
59.335556 37.563843 54.135273
59.482998 37.439396 55.217743
60.907898 36.236694 56.612988
61.506306 35.731606 57.837326
61.506306 35.731602 58.917122
63.267113 34.245377 60.497318
61.106102 36.069401 60.957291
60.585587 36.508743 61.868679
60.627571 36.473309 62.949112
60.894638 36.247887 64.107491
61.198601 35.991325 65.286575
61.23267 35.96257 66.374588
61.075005 36.095646 67.389999
60.74781 36.371819 68.333481
60.832497 36.300339 69.437393
61.389385 35.830292 70.74501
57.211521 38.011086 2.4101257
57.266624 37.963539 3.4115677
58.663509 36.75827 3.7795181
60.989235 34.751575 3.7612381
61.296505 34.486454 12.315422
60.976776 34.762321 13.507801
60.751995 34.956272 14.661039
60.568325 35.114742 15.795452
60.467697 35.201569 16.900772
60.367329 35.28817 18.003141
60.266918 35.374805 19.102633
60.167095 35.460938 20.199106
60.067528 35.546844 21.29266
59.967922 35.632786 22.383362
59.868893 35.718235 23.471096
59.770126 35.803452 24.555935
59.671307 35.888714 25.637951
59.573067 35.97348 26.717041
59.475082 36.058025 27.793278
59.377048 36.142609 28.866709
59.279583 36.226707 29.937265
59.185112 36.30822 31.004726
59.185112 36.30822 32.061344
59.185112 36.30822 33.117958
59.185112 36.308216 34.174576
59.185108 36.30822 35.231201
59.184803 36.308483 36.287827
59.184505 36.308743 37.34444
59.646645 35.909992 38.401058
59.646645 35.909996 39.464294
59.390205 36.131256 40.520172
59.420826 36.104836 41.581047
59.45116 36.078663 42.642792
59.481827 36.052204 43.705425
59.512524 36.025719 44.76894
59.543243 35.99921 45.83334
59.573986 35.972687 46.898621
59.60445 35.946404 47.964752
59.635246 35.91983 49.031803
59.666069 35.893238 50.099731
59.696915 35.866619 51.16856
59.290569 36.217224 52.156754
58.650017 36.769913 53.086266
58.434982 36.955452 54.088943
58.542786 36.862431 55.15955
59.247864 36.254074 56.378872
59.854012 35.731071 57.592876
59.853706 35.731335 58.659004
60.034821 35.575066 59.777168
60.241234 35.396965 60.908134
59.712345 35.853306 61.813023
59.632168 35.922489 62.850758
59.826134 35.755127 63.980553
60.027035 35.581787 65.118401
60.092163 35.525589 66.21138
60.031395 35.578022 67.257477
59.792393 35.784241 68.230255
59.858662 35.727062 69.323143
60.27758 35.365608 70.569672
57.145714 36.698101 3.1401558
57.978737 35.963413 3.7792358
59.276188 34.81913 4.227272
59.276188 34.81913 5.2951965
59.183292 34.901058 6.4034805
59.106869 34.96846 7.5021515
59.052341 35.016552 8.589735
58.998196 35.064304 9.6755943
58.943821 35.112259 10.75997
58.889843 35.159866 11.842625
58.835632 35.20768 12.923798
58.781803 35.25515 14.003277
58.727753 35.302822 15.081261
58.674084 35.350155 16.15757
58.620193 35.397682 17.232391
58.566681 35.444878 18.305546
58.512947 35.492268 19.377203
58.459599 35.539318 20.447216
58.406021 35.586571 21.515734
58.352825 35.633488 22.582623
58.2994 35.680607 23.648014
58.246361 35.727383 24.711784
58.1931 35.774357 25.774059
58.140213 35.821003 26.834734
58.087101 35.867844 27.893906
58.034363 35.914352 28.951494
57.981411 35.961056 30.007584
57.933289 36.003498 31.061638
57.933289 36.003498 32.110126
57.933289 36.003498 33.158615
57.933289 36.003498 34.2071
57.915478 36.019207 35.256367
57.915482 36.019203 36.304592
57.915478 36.019207 37.352825
58.313503 35.668167 38.401054
58.313507 35.668167 39.455044
58.066837 35.885715 40.501896
58.080246 35.87389 41.552895
58.090973 35.864426 42.604134
58.101715 35.854954 43.655685
58.112453 35.845486 44.707542
58.123196 35.83601 45.759716
58.133938 35.826534 46.812202
58.144691 35.817051 47.864998
58.155441 35.807571 48.918098
58.166195 35.798088 49.971519
58.177254 35.78833 51.025299
58.188011 35.778843 52.079338
58.10738 35.849957 53.115173
57.889969 36.041702 54.118965
58.019188 35.927738 55.196762
58.231689 35.740322 56.298798
58.242168 35.731083 57.35434
58.241867 35.731346 58.407211
59.188507 34.896458 59.73428
59.577709 34.553204 60.919277
59.062134 35.007915 61.827351
58.919415 35.133785 62.844658
59.041016 35.026539 63.949677
59.178066 34.905666 65.063805
59.222019 34.866905 66.146866
59.209412 34.878021 67.209076
59.071941 34.999268 68.220314
59.138157 34.940865 69.313095
59.559082 34.56963 70.561852
56.945847 35.482342 2.9027901
57.368526 35.101322 3.742981
57.99234 34.538994 4.5014496
57.983337 34.547112 5.5648918
57.935349 34.59037 6.6451683
57.887123 34.633842 7.7241402
57.83926 34.676987 8.8015518
57.791458 34.720078 9.8775444
57.743427 34.763374 10.952217
57.695755 34.806347 12.025364
57.648148 34.849262 13.097092
57.6003 34.892395 14.167507
57.552822 34.935192 15.236408
57.505398 34.97794 16.303905
57.457748 35.020897 17.370075
57.410454 35.06353 18.434759
57.363216 35.10611 19.498047
57.31575 35.148899 20.560007
57.268642 35.19136 21.620497
57.221596 35.233772 22.6796
57.174313 35.276394 23.737373
57.127392 35.318691 24.79369
57.080528 35.360939 25.848637
57.033432 35.403393 26.902243
56.986694 35.445522 27.95442
56.940018 35.487598 29.005222
56.893108 35.529881 30.054686
56.852074 35.566872 31.102188
56.852077 35.566868 32.144878
56.852077 35.566872 33.187572
56.852077 35.566868 34.23027
56.784088 35.628159 35.275948
56.784084 35.628162 36.317654
56.784088 35.628159 37.359352
57.103947 35.339825 38.401058
57.103653 35.340088 39.44743
56.86924 35.551399 40.486946
56.978813 35.452625 41.534695
57.053318 35.385464 42.583599
57.114498 35.330315 43.633709
57.142342 35.305214 44.682682
57.16991 35.280365 45.732445
57.201912 35.251518 46.783524
57.257168 35.201706 47.838608
57.312214 35.152088 48.895267
57.333138 35.133224 49.948051
57.316635 35.148102 50.994888
57.300133 35.162975 52.041241
57.279823 35.181286 53.086323
57.252754 35.205685 54.129345
57.225708 35.230064 55.17157
57.198975 35.254166 56.213085
56.793373 35.619789 57.154137
57.038109 35.399174 58.263939
58.818817 33.793976 59.82991
59.491627 33.187481 61.107868
58.657944 33.938995 61.921062
58.532505 34.052071 62.94799
58.516663 34.066349 64.009689
58.571526 34.016899 65.096756
58.593796 33.996822 66.17305
58.593796 33.996822 67.241203
58.570911 34.017448 68.299988
58.653667 33.942852 69.402893
59.276459 33.381447 70.74501
56.776367 34.219616 2.645607
57.040474 33.976295 3.568615
57.289589 33.746784 4.5065041
57.279785 33.755817 5.5701904
57.226627 33.80479 6.6527901
57.173847 33.853416 7.733654
57.120853 33.902241 8.8130455
57.06823 33.950722 9.890728
57.015388 33.999405 10.966942
56.962921 34.047745 12.041458
56.910236 34.096283 13.114498
56.857918 34.144482 14.185867
56.805679 34.192608 15.255659
56.753227 34.240932 16.323977
56.701145 34.288918 17.390635
56.648846 34.337101 18.455822
56.596912 34.384949 19.519367
56.545055 34.432724 20.58136
56.492985 34.480698 21.641872
56.441277 34.528332 22.700762
56.389359 34.576168 23.758183
56.337807 34.623661 24.813992
56.286324 34.671093 25.868267
56.234634 34.718716 26.921053
56.183304 34.766006 27.972267
56.13176 34.813492 29.021992
56.080582 34.860641 30.07015
56.036072 34.901649 31.116112
56.036072 34.901649 32.156822
56.036076 34.901646 33.197521
56.036076 34.901649 34.238228
55.926056 35.00301 35.283802
55.83606 35.085918 36.325542
55.792435 35.126114 37.363945
56.050426 34.888424 38.401051
56.061623 34.878109 39.442135
55.964981 34.967144 40.48037
56.138954 34.806862 41.527729
56.306561 34.652451 42.579845
56.467125 34.504524 43.636391
56.540977 34.436478 44.689999
56.620239 34.363453 45.746342
56.716934 34.274368 46.807087
56.813896 34.18504 47.870716
56.914356 34.092487 48.937729
56.938187 34.07053 49.995266
56.882305 34.122013 51.039383
56.826511 34.173416 52.081871
56.77549 34.220425 53.123703
56.72747 34.264664 54.164692
56.679802 34.308578 55.204346
56.13493 34.810574 56.117859
55.399662 35.487976 56.964714
56.172356 34.776093 58.212681
64.493629 27.109699 61.711403
59.8465 31.391104 61.436745
58.42646 32.699387 62.072655
58.336697 32.782085 63.118164
58.3367 32.782082 64.192825
58.336693 32.782085 65.267487
58.336697 32.782085 66.34214
58.336693 32.782085 67.416794
58.336697 32.782085 68.491455
58.487553 32.643101 69.630676
59.860527 31.378178 71.315399
57.210789 32.367527 8.4875031
57.124344 32.448917 9.5906219
57.038109 32.530113 10.691086
56.952076 32.611115 11.788902
56.865952 32.692207 12.88419
56.780338 32.772816 13.97673
56.694923 32.853241 15.066662
56.609715 32.933468 16.15398
56.524418 33.013779 17.238783
56.439621 33.09362 18.320902
56.355019 33.173279 19.400448
56.270622 33.252739 20.477413
56.186432 33.332012 21.551817
56.102146 33.411369 22.623737
56.018349 33.490269 23.693035
55.934753 33.568977 24.759806
55.869225 33.630676 25.820847
55.817928 33.678974 26.877609
55.766426 33.727467 27.932865
55.715282 33.77562 28.986546
55.663921 33.823978 30.038723
55.618366 33.866871 31.088768
55.618366 33.866871 32.133377
55.618366 33.866871 33.17799
55.61837 33.866871 34.222603
55.422779 34.051025 35.275959
55.289497 34.176521 36.321629
55.221767 34.240292 37.36235
55.394882 34.077293 38.401054
55.427334 34.046738 39.442818
55.425625 34.048347 40.484531
55.654743 33.832619 41.536522
55.922615 33.580406 42.597637
56.174789 33.342972 43.665573
56.311485 33.214268 44.730698
56.458965 33.075405 45.801025
56.600586 32.942062 46.875038
56.746918 32.804287 47.953918
56.905125 32.655323 49.038918
56.904537 32.655876 50.102612
56.820305 32.735188 51.151325
56.736572 32.814026 52.197628
56.658047 32.887962 53.242523
56.58234 32.95924 54.285706
56.507088 33.030094 55.326744
54.979149 34.468727 55.99754
54.298519 35.109573 56.850067
54.813122 34.62505 58.020714
63.339985 26.596581 61.594498
63.339989 26.596577 62.754169
59.172554 30.520426 62.547668
58.747654 30.92049 63.499619
58.519646 31.135172 64.509323
58.329479 31.314222 65.526321
58.329483 31.314219 66.611336
58.329792 31.313929 67.696465
58.341839 31.302586 68.786514
58.684589 30.979866 70.019821
56.127953 31.929028 27.775562
56.043274 32.010509 28.849579
55.958508 32.092072 29.921059
55.875977 32.171478 30.989754
55.875977 32.171478 32.048504
55.87598 32.171474 33.107262
55.875973 32.171482 34.166031
55.382835 32.645977 35.24704
55.089691 32.92804 36.307201
54.91753 33.093697 37.356716
55.155537 32.864685 38.401054
55.248405 32.77533 39.450363
55.38715 32.641827 40.503857
55.872486 32.174839 41.577171
61.72337 26.545124 53.30875
58.429882 29.714113 53.761673
58.429882 29.714113 54.858864
58.429886 29.714113 55.956051
54.094521 33.885593 55.944218
53.039047 34.901169 56.690292
52.916142 35.019428 57.671223
58.429882 29.714115 60.344795
58.429882 29.714115 61.441982
58.429882 29.714115 62.539173
58.429886 29.714111 63.636368
58.429886 29.714113 64.733551
58.429886 29.714111 65.830734
58.42989 29.714109 66.927925
58.429886 29.714113 68.025108
58.512245 29.634865 69.156998
53.22913 33.292328 55.894814
51.843781 34.65448 56.544907
51.320152 35.169338 57.401703
50.689545 34.389397 56.407936
50.064896 35.017006 57.226143
49.624771 34.054195 56.293156
48.839191 34.860718 57.055737
48.677406 33.614227 56.209141
47.692955 34.646935 56.905502
48.138176 34.179893 58.01889
46.586494 34.41357 56.764111
46.380413 34.63446 57.665356
45.52607 34.151707 56.633755
44.947399 34.785435 57.408306
44.562202 33.802216 56.530289
43.8428 34.607189 57.251953
43.766323 33.277058 56.476749
42.762287 34.424915 57.100143
41.729622 34.209835 56.960854
40.76675 33.932865 56.841827
40.469772 34.287292 57.659786
39.903435 33.552998 56.753757
38.787392 34.913868 57.27597
39.239586 32.938446 56.731789
37.929817 34.570255 57.179092
38.635704 32.251053 56.730019
36.73909 34.665405 56.959332
36.747234 34.655037 57.846149
36.129425 34.038395 56.947479
35.239136 35.196392 57.488884
36.001221 32.773327 57.113804
35.154121 33.89917 57.675957
35.668808 31.759548 57.207436
34.760757 32.992752 57.746269
59.22744 42.662987 2.7700844
60.430046 42.583252 3.2895279
63.155018 42.362385 2.7953911
64.472115 42.273754 3.3100204
66.639534 42.107208 3.2966309
56.783073 41.716801 3.0981789
58.245232 41.597534 3.3912544
60.073135 41.440369 3.4622383
63.651863 41.099354 2.380867
64.035858 41.097267 3.5286484
65.845039 40.945694 3.7449341
56.53027 40.598686 3.2023659
57.636868 40.507515 3.7471581
59.575012 40.318275 3.7338142
63.366455 39.911175 2.5000801
63.722004 39.912151 3.6657104
65.737442 39.718189 3.7443466
56.754776 39.418861 2.9586906
57.530327 39.361824 3.7454529
59.465965 39.152653 3.7338448
63.736954 38.639099 2.1704445
63.791801 38.67971 3.5459251
65.630112 38.488113 3.7434464
56.891788 38.240997 2.7781372
57.43787 38.211834 3.7335167
59.356712 37.984795 3.7338753
63.8009 37.44899 3.4664307
65.522079 37.255581 3.7428665
56.917564 37.072189 2.6782799
57.374218 37.054668 3.7007942
59.248096 36.814552 3.7332993
63.714607 36.227669 3.4506683
65.413818 36.020527 3.7422676
89.638931 35.073269 57.542625
56.801552 35.921955 2.6817703
57.264591 35.901958 3.7007866
59.138847 35.642117 3.733036
63.698872 34.92923 1.965683
63.538372 35.018463 3.4951668
64.744835 34.877186 4.1102867
64.884079 34.915733 5.4361076
64.893303 34.975693 6.8370781
64.902466 35.035217 8.2278347
64.91156 35.094303 9.6084938
64.920586 35.152966 10.979166
64.930016 35.211128 12.339705
64.938919 35.268948 13.690741
64.947739 35.326359 15.032114
64.95652 35.383354 16.363922
64.965225 35.439949 17.686266
64.974327 35.496067 18.999027
64.98336 35.551792 20.302544
64.99234 35.607124 21.596901
65.001251 35.662071 22.88221
65.010101 35.716633 24.158558
65.01889 35.770817 25.426037
65.027618 35.824627 26.684746
65.036728 35.877995 27.934586
65.045334 35.931065 29.176022
65.053879 35.983772 30.408953
65.13636 36.024593 31.605732
65.269897 36.057205 32.777489
61.73455 36.657154 35.228664
62.030396 36.662323 36.290287
62.314133 36.669319 37.355034
68.474426 35.776562 36.575676
68.297516 35.856831 37.847729
63.191952 37.215919 52.657467
59.809166 37.75631 54.232689
60.734272 37.665985 55.116272
63.520535 37.306168 55.769661
86.019539 34.208603 56.652252
86.699814 34.166222 57.851868
56.552814 34.794144 2.7823334
57.111469 34.75502 3.7318344
58.000805 34.65567 4.4553947
58.093319 34.702362 5.7430344
58.063183 34.770977 7.1056843
58.032887 34.8391 8.4573803
58.003246 34.906593 9.7977333
57.97345 34.973606 11.127407
57.944294 35.040005 12.446014
57.91497 35.105934 13.7542
57.886284 35.171265 15.05159
57.857426 35.236137 16.338797
57.828804 35.300495 17.6157
57.800804 35.364265 18.882208
57.772633 35.427605 20.138876
57.745075 35.490372 21.385408
57.717743 35.552643 22.62212
57.69022 35.614494 23.849346
57.663311 35.675797 25.066784
57.636227 35.736687 26.274933
57.60973 35.797043 27.473541
57.583447 35.856926 28.662891
57.556973 35.91642 29.843281
57.534885 35.974747 31.012869
57.666447 36.006725 32.112225
57.797459 36.038574 33.207005
57.926792 36.070477 34.297661
57.993492 36.112621 35.406292
58.133144 36.142326 36.483124
58.270721 36.172173 37.556286
59.767502 35.977127 38.182316
59.958202 35.998585 39.246536
59.28096 36.162384 40.569389
59.540508 36.171795 41.597076
59.802811 36.180695 42.622631
60.169636 36.172546 43.619095
60.491146 36.171795 44.628246
60.841454 36.166401 45.630531
61.30027 36.143585 46.608505
61.700253 36.13036 47.60265
62.241882 36.094585 48.56918
62.739319 36.06609 49.549484
63.307842 36.026501 50.520607
59.951702 36.608025 52.182247
58.367462 36.906334 53.472748
58.23106 36.975151 54.500877
58.594357 36.965248 55.448727
59.763306 36.829628 56.292755
65.112892 36.044315 56.654816
67.349426 35.746967 57.464684
74.9505 34.622135 57.787735
87.304306 32.772106 57.847839
61.112206 36.901566 62.123154
61.614483 36.870934 63.073544
61.730736 36.899235 64.04586
62.13443 36.883759 65.004074
56.633057 33.602757 2.6417046
56.996544 33.599464 3.7353745
57.022614 33.662346 5.0668869
56.980045 33.738155 6.4361115
56.920929 33.816605 7.8050289
56.862347 33.894356 9.161768
56.804272 33.971424 10.506516
56.746716 34.04781 11.839415
56.689663 34.123524 13.160624
56.63311 34.198582 14.470303
56.576656 34.273056 15.768831
56.52108 34.346813 17.055874
56.465981 34.419937 18.331829
56.411354 34.492432 19.596846
56.356815 34.564381 20.851246
56.303116 34.635643 22.094769
56.249878 34.706303 23.327765
56.197086 34.776367 24.55035
56.144367 34.845913 25.762844
56.098064 34.913773 26.962406
56.070019 34.977798 28.144051
56.042183 35.041328 29.316509
56.014938 35.104301 30.479727
56.039406 35.15744 31.612696
56.104488 35.202862 32.721939
56.169193 35.248032 33.824974
56.100208 35.316883 34.971855
56.090641 35.374622 36.08762
56.131134 35.423038 37.177841
56.874275 35.346294 38.023899
56.968903 35.384888 39.091782
57.063072 35.423294 40.154514
56.82082 35.520584 41.313454
56.982391 35.546452 42.342194
57.171764 35.567291 43.359703
57.269814 35.603878 44.398682
57.340611 35.644943 45.439651
57.411018 35.685799 46.475201
57.48143 35.726376 47.50528
57.558323 35.765568 48.528519
57.643459 35.803089 49.544838
57.9338 35.805367 50.515816
58.288536 35.796684 51.474548
58.440212 35.822456 52.46981
57.766201 35.987461 53.596401
57.700573 36.049004 54.608871
58.001595 36.048645 55.561569
58.835033 35.959278 56.444973
60.390701 35.750153 57.253693
60.734638 35.743641 58.221096
61.037247 35.744011 59.193371
63.07428 35.458176 60.014084
60.340424 35.958916 61.237808
59.49543 36.146751 62.272427
59.85907 36.135853 63.215595
60.296135 36.113064 64.156799
60.928452 36.058716 65.093979
61.305931 36.045959 66.044411
61.501484 36.062645 66.999138
60.539474 36.265427 67.957382
60.452271 36.326656 68.894897
60.873173 36.306282 69.832497
57.377998 32.337593 3.3817406
57.161865 32.455788 4.8927574
57.082756 32.544533 6.2924767
56.9757 32.638397 7.6984272
56.869705 32.731331 9.0903854
56.765156 32.823261 10.468313
56.661247 32.914364 11.832924
56.558353 33.004578 13.184147
56.456463 33.09391 14.522198
56.355949 33.182297 15.847025
56.256023 33.269909 17.159283
56.157055 33.356678 18.458925
56.059036 33.442616 19.746128
55.961945 33.527737 21.021076
55.877129 33.609791 22.278046
55.825825 33.684593 23.506927
55.774967 33.758766 24.725473
55.724525 33.832317 25.933804
55.674507 33.905254 27.132061
55.624908 33.977589 28.320358
55.575714 34.04932 29.498825
55.526558 34.120533 30.667738
55.529926 34.18108 31.805508
55.553261 34.237343 32.927288
55.576805 34.293171 34.041584
55.354412 34.395691 35.240856
55.194595 34.48555 36.40403
55.133995 34.555923 37.520752
55.467213 34.551193 38.495228
55.55677 34.592499 39.549686
55.543629 34.65284 40.631042
55.835159 34.655643 41.612774
56.098763 34.663643 42.60223
56.336376 34.67643 43.597893
56.459915 34.710297 44.622238
56.577957 34.744949 45.643703
56.693722 34.779789 46.661346
56.809364 34.814415 47.674641
56.924156 34.848965 48.683769
57.012516 34.888103 49.694077
56.99445 34.946331 50.720432
56.976852 35.004089 51.739468
56.969227 35.059662 52.74963
56.97287 35.112839 53.751099
56.976826 35.165604 54.745987
56.980419 35.21809 55.734474
56.138142 35.421024 56.826435
56.023304 35.493378 57.807091
57.283779 35.321678 58.630039
58.581894 35.144451 59.470078
60.062012 34.936344 60.315643
59.373562 35.109936 61.351845
58.73138 35.274319 62.364212
58.91547 35.293655 63.311142
59.135284 35.306664 64.254166
59.431877 35.30629 65.192978
59.576687 35.332123 66.135559
59.632191 35.373158 67.076378
59.284191 35.483143 68.014122
59.301716 35.529934 68.941078
59.600498 35.528496 69.867004
60.387787 35.444065 70.805618
58.684212 31.468586 13.124733
57.344036 31.831751 15.213755
56.802216 32.020721 16.79668
56.443619 32.169079 18.252329
56.343697 32.261185 19.547329
56.244743 32.352406 20.829929
56.147102 32.44268 22.100115
56.050014 32.532177 23.35845
55.953842 32.620831 24.604912
55.858566 32.708652 25.839668
55.764191 32.79565 27.062866
55.670692 32.88184 28.274693
55.578423 32.967155 29.47513
55.486641 33.051762 30.664663
55.450382 33.124348 31.820662
55.435478 33.192039 32.959068
55.420319 33.259308 34.089176
55.041206 33.400139 35.347599
54.811989 33.509598 36.534279
54.736912 33.587147 37.653511
54.967674 33.602589 38.659863
55.066242 33.644444 39.707397
55.197842 33.679405 40.739491
55.476124 33.684902 41.723122
55.747505 33.691734 42.708088
56.002319 33.701794 43.696831
56.130577 33.73674 44.717999
56.258324 33.771545 45.735123
56.387344 33.805866 46.747799
56.517277 33.839779 47.756187
56.646351 33.873631 48.760765
56.726059 33.916821 49.771606
56.674133 33.985157 50.803204
56.622967 34.052891 51.826672
56.572189 34.120098 52.842175
56.521469 34.186848 53.849854
56.477009 34.251965 54.848846
56.44186 34.31488 55.839012
51.983337 35.215183 57.395065
54.608349 34.772343 58.007004
56.607777 34.450108 58.737087
58.079006 34.229034 59.555222
59.634754 33.993595 60.391159
58.801846 34.204784 61.435173
58.369942 34.340126 62.429119
58.391094 34.39072 63.382919
58.505939 34.423698 64.326866
58.619286 34.456745 65.267181
58.689873 34.497421 66.204849
58.730457 34.543324 67.138405
58.628384 34.614929 68.067413
58.669193 34.66013 68.989418
58.918503 34.667294 69.909859
59.593033 34.597656 70.84066
61.167728 34.36647 71.811584
57.493263 31.244423 25.026129
56.963692 31.434181 26.476395
56.444038 31.620384 27.899498
55.934402 31.803053 29.29603
55.757973 31.911585 30.528728
55.711987 31.990934 31.694639
55.695663 32.063282 32.83931
55.679096 32.13517 33.975582
55.346222 32.2747 35.222225
55.073494 32.400337 36.430779
54.931915 32.497032 37.578777
55.111244 32.524628 38.607079
55.158794 32.580029 39.675129
55.243893 32.627098 40.725044
55.518951 32.633762 41.712299
55.796307 32.639896 42.69812
56.056366 32.649612 43.688049
56.172729 32.689266 44.71505
56.288235 32.728832 45.737782
56.403267 32.768223 46.75618
56.517799 32.807453 47.770267
56.63221 32.846443 48.780003
56.690838 32.896622 49.796959
56.616047 32.973763 50.834503
56.542236 33.05019 51.863327
56.468681 33.126053 52.883671
56.396095 33.201214 53.895523
56.323753 33.275833 54.899101
49.465683 34.715511 56.845741
49.354843 34.792374 57.763737
52.879169 34.141994 58.243206
56.376003 33.501347 58.795975
58.006516 33.235554 59.598442
59.778076 32.943565 60.41732
58.890553 33.178185 61.468285
58.275715 33.357651 62.476479
58.266335 33.417263 63.432571
58.253868 33.477089 64.382469
58.241837 33.536453 65.326035
58.246185 33.592255 66.262955
58.253963 33.647041 67.19397
58.261341 33.701557 68.11924
58.305466 33.748661 69.03907
58.557487 33.755604 69.957527
59.194534 33.688908 70.88559
60.696842 33.45776 71.852325
56.447998 31.028227 35.9231
56.35146 31.121399 37.074692
56.758041 31.100639 38.045914
56.650505 31.195374 39.186939
55.988091 31.413515 40.491646
56.213379 31.43235 41.505043
56.438606 31.451071 42.516411
56.666306 31.469114 43.525082
56.736095 31.521856 44.573734
56.791813 31.57733 45.620308
56.846851 31.632572 46.661118
56.901596 31.687506 47.696121
56.956024 31.742136 48.725365
56.972988 31.804518 49.756596
56.881363 31.889944 50.802517
56.791241 31.974474 51.839195
56.696976 32.059326 52.867737
56.602837 32.143589 53.887413
56.509171 32.227192 54.898254
44.858276 34.766079 57.516773
47.450775 34.271572 58.037354
52.125656 33.340729 58.363167
56.614285 32.455173 58.80444
58.55648 32.109432 59.58173
59.505131 32.036369 61.462132
58.336597 32.341389 62.513908
58.301346 32.409836 63.473629
58.266338 32.477795 64.426453
58.158123 32.560371 65.374901
58.132915 32.625404 66.313171
58.133102 32.684834 67.244644
58.134655 32.743607 68.170204
58.187397 32.791615 69.090332
58.447502 32.797337 70.009338
59.091118 32.725628 70.938324
60.718033 32.456547 71.911049
58.166565 29.68948 37.565163
63.387821 28.531273 36.989243
59.726238 29.473024 39.31929
58.282902 29.887657 40.883308
58.603645 29.886858 41.894154
58.704937 29.937212 42.965954
59.524246 29.820452 43.842007
57.41309 30.941488 53.781906
42.905865 34.266609 56.974159
42.842712 34.33725 57.823273
46.28685 33.625114 58.21463
56.339714 31.448435 57.898415
65.973877 29.378819 57.83934
66.001968 29.444366 58.903687
66.013168 29.513203 59.963123
59.954105 30.913578 61.469028
58.925056 31.204731 62.517727
58.765289 31.304491 63.49189
58.346912 31.459808 64.467667
58.14772 31.56665 65.421432
58.132576 31.63307 66.360901
58.132763 31.695768 67.2939
58.133633 31.757919 68.220963
58.187836 31.808271 69.142593
58.464298 31.810921 70.063522
59.139278 31.728861 70.995377
60.911194 31.414923 71.976532
36.167084 34.937786 57.237938
37.903179 34.582783 57.749245
41.3951 33.817291 58.0495
47.010544 32.559212 58.149231
58.189995 30.009804 57.71402
58.181057 30.081928 58.706314
58.172192 30.153568 59.691929
58.163372 30.224724 60.670898
58.154617 30.295404 61.643318
58.145927 30.365612 62.609241
58.137291 30.435352 63.568733
58.340973 30.456169 64.512802
58.137634 30.569479 65.468124
58.13258 30.637085 66.408798
58.132763 30.703072 67.343323
58.133293 30.768562 68.271889
58.196224 30.819616 69.195114
58.491535 30.8183 70.118103
59.193611 30.726173 71.052872
61.15826 30.353619 72.044548
35.920097 34.20602 57.297607
36.092186 34.220566 58.042648
41.038017 33.058235 58.123413
58.521126 28.82328 56.705368
58.487469 28.905849 57.712593
58.453705 28.987904 58.712494
58.42054 29.069271 59.705055
58.387619 29.150047 60.690422
58.354576 29.230326 61.668678
58.322132 29.30994 62.639858
58.28957 29.389065 63.60408
58.264618 29.465857 64.561081
58.255615 29.538349 65.510895
58.24667 29.610363 66.45443
58.237789 29.681904 67.391754
58.228962 29.752972 68.322906
58.293556 29.806295 69.248642
58.611279 29.799849 70.174698
59.360088 29.692543 71.113914
34.416527 33.80323 57.559364
36.00029 33.45192 58.077709
59.582241 27.428848 55.578415
59.427055 27.548088 56.621689
59.287407 27.662558 57.652962
59.213623 27.759451 58.667545
59.140072 27.855648 59.673874
59.067486 27.95097 60.671993
58.995487 28.045521 61.662033
58.92408 28.139309 62.644096
58.853226 28.232346 63.618271
58.782944 28.324638 64.584656
58.713226 28.416195 65.54335
58.656425 28.503948 66.494179
58.623253 28.585278 67.4375
58.590324 28.666031 68.374123
58.652641 28.722794 69.305031
59.017952 28.704769 70.23732
60.079983 28.516243 71.191887
34.131767 33.101604 57.624607
36.049629 32.644218 58.091705
61.046646 26.631691 63.548954
60.51495 26.850769 64.558952
60.090988 27.040344 65.548164
59.939392 27.157925 66.516754
59.788891 27.274464 67.475998
59.637684 27.390442 68.426041
59.692078 27.452763 69.369072
60.376247 27.353117 70.320084
34.334435 32.265778 57.611618
36.254028 31.788671 58.082691
57.687649 42.645126 2.9361076
61.041653 42.297005 3.6345291
56.723709 41.820782 2.9363556
59.272549 41.521183 3.6659698
56.738075 40.899464 2.8775368
57.262836 40.806404 3.7119102
89.598877 34.987473 57.406395
56.98391 39.945435 2.8041382
57.246281 39.877224 3.6556206
87.257263 33.875717 56.490997
84.24498 34.252457 56.772175
81.192543 34.63773 56.970219
64.399033 36.988457 52.340782
62.358139 37.238369 52.663383
60.449543 37.470482 53.004688
59.53986 37.555775 53.794476
59.566299 37.502014 55.040581
62.522434 36.851528 61.713276
61.964558 36.882965 62.71402
62.03849 36.818283 64.079079
61.936035 36.671333 68.042488
62.069035 36.595741 69.489212
57.174133 38.990738 2.7337036
57.366604 38.926392 3.5918808
66.717079 36.303841 33.768326
65.096947 36.49757 34.502598
63.683018 36.661377 35.263969
63.28907 36.671204 36.295231
62.934822 36.675045 37.336918
65.308151 36.209351 40.422253
63.713608 36.402836 41.080555
63.671074 36.357574 42.251503
63.627861 36.312103 43.42942
63.584808 36.266293 44.614693
63.541489 36.220196 45.80722
63.500916 36.173347 47.008274
63.475147 36.123837 48.223022
63.449211 36.073997 49.445744
63.423096 36.023834 50.676506
63.148144 36.012909 51.803154
60.806282 36.331974 51.97171
59.219208 36.532368 52.448154
58.526962 36.590282 53.330654
58.275421 36.577473 54.425739
58.98748 36.408447 56.021729
62.681213 35.753338 59.229675
62.603745 35.708912 60.493011
61.012409 35.912136 60.918312
60.105644 36.004311 61.70108
59.864738 35.987286 62.858624
60.319363 35.854935 64.43663
60.660496 35.740459 65.967522
60.482422 35.711769 67.191582
59.889984 35.752274 68.154076
59.997665 35.675365 69.569992
57.282169 38.040966 2.6680298
57.408459 37.981384 3.5320129
66.306358 35.80809 21.363762
66.064217 35.795193 22.410069
65.821686 35.782272 23.458109
65.578735 35.769329 24.507904
65.335381 35.756367 25.559441
65.091614 35.743382 26.612741
64.84787 35.730309 27.667873
64.737541 35.695831 28.752663
64.650566 35.657379 29.847486
64.563576 35.618668 30.947811
64.51812 35.572994 32.063774
64.473656 35.526848 33.186573
59.295074 36.314655 32.950397
59.168736 36.284077 34.003353
59.017254 36.257401 35.053478
58.881142 36.228016 36.112137
58.744888 36.198456 37.175053
59.941391 35.94838 38.676434
59.773846 35.922832 39.75378
58.836273 36.025284 40.565224
58.751915 35.985931 41.670811
58.667118 35.946377 42.782101
58.581886 35.90662 43.899136
58.496208 35.866653 45.021965
58.278618 35.848751 46.096348
58.053581 35.831989 47.170265
57.964561 35.791901 48.306389
57.875092 35.751602 49.448418
57.837105 35.702164 50.620529
57.803528 35.651611 51.802345
57.770134 35.600658 52.99202
57.70718 35.554474 54.174664
57.61409 35.513203 55.348854
57.52129 35.471581 56.529625
56.330425 35.622509 57.118168
60.373856 34.851852 60.609196
59.512009 34.94339 61.411243
58.951214 34.982143 62.375515
59.047348 34.904087 63.728432
59.259247 34.804733 65.164993
59.257874 34.742935 66.483185
59.085983 34.711407 67.701492
59.043667 34.656197 69.010185
57.303699 37.099319 2.6075554
57.383759 37.04274 3.4755096
65.969398 35.291039 10.874657
65.735039 35.278152 11.877764
65.501099 35.265114 12.882528
65.266777 35.252056 13.888926
65.031677 35.23904 14.896938
64.846146 35.217789 15.910414
64.762543 35.179581 16.935522
64.678535 35.14119 17.965508
64.594131 35.102615 19.000412
64.509735 35.063789 20.040306
64.42453 35.024845 21.085138
64.338905 34.985714 22.134998
59.177673 35.800438 22.417923
58.920269 35.792614 23.393993
58.662247 35.78484 24.370995
58.403965 35.777061 25.348974
58.145779 35.769215 26.327999
57.88699 35.761417 27.307941
57.62793 35.753616 28.288866
57.398136 35.740719 29.277596
57.255806 35.71262 30.289268
57.136402 35.680355 31.310555
57.075718 35.63765 32.351822
57.014698 35.594711 33.398792
56.953358 35.551537 34.451515
56.730881 35.536392 35.461544
56.643478 35.497314 36.51601
56.547295 35.459518 37.572987
57.121384 35.302395 38.861729
57.028481 35.263073 39.938599
56.596813 35.284073 40.898079
56.780537 35.194752 42.085491
56.944679 35.10833 43.277817
57.020123 35.037327 44.446774
57.067596 34.970898 45.614185
57.115082 34.903992 46.791016
57.200993 34.829586 47.994194
57.293427 34.753448 49.210926
57.259132 34.700089 50.379627
57.173466 34.65583 51.531418
57.088108 34.611191 52.689739
57.013477 34.564232 53.859924
56.933014 34.518021 55.033905
56.372524 34.561432 55.959221
54.923504 34.772305 56.393284
53.429928 34.993145 56.771461
52.158566 35.173515 57.244545
58.684532 33.87212 62.271576
58.659283 33.811745 63.550701
58.633865 33.750946 64.838699
58.616116 33.688217 66.140633
58.608604 33.623035 67.458572
58.616028 33.554462 68.796173
59.34692 33.344616 70.631592
57.240776 36.168137 2.5523033
57.277439 36.115067 3.4233284
64.888077 34.782742 3.9574738
64.845711 34.738411 4.9177933
64.78553 34.696831 5.8837204
64.704315 34.658573 6.8548393
64.6231 34.620075 7.8304348
64.54113 34.581463 8.8105431
64.458778 34.542675 9.7951984
64.37603 34.503708 10.784433
64.292915 34.464554 11.778271
64.209404 34.42522 12.776741
59.061932 35.268127 13.499092
58.811398 35.260326 14.443174
58.560616 35.252518 15.38818
58.309593 35.244698 16.334103
58.05798 35.236935 17.28091
57.806118 35.229164 18.228634
57.657837 35.202938 19.189638
57.519966 35.174686 20.155191
57.381615 35.146332 21.12414
57.243118 35.117817 22.096548
57.103783 35.089264 23.072338
56.964306 35.060547 24.051636
56.82399 35.031792 25.034336
56.683167 35.002934 26.020523
56.542206 34.973911 27.010277
56.400383 34.944847 28.00349
56.307709 34.906563 29.011692
56.223763 34.866405 30.026854
56.140465 34.825859 31.047258
56.119453 34.773476 32.089375
56.098301 34.720757 33.138126
56.07737 34.667637 34.193691
55.826275 34.657307 35.186661
55.630615 34.636471 36.198353
55.513714 34.600624 37.2384
55.762703 34.495209 38.406776
55.759125 34.437073 39.500381
55.724091 34.384533 40.590168
56.023243 34.267639 41.81226
56.311443 34.152027 43.045475
56.499474 34.054905 44.25383
56.61335 33.971439 45.444408
56.74337 33.884247 46.652969
56.879627 33.795212 47.875889
57.021862 33.704365 49.113441
57.00584 33.643929 50.289562
56.92646 33.595535 51.44352
56.846638 33.546875 52.603806
56.764076 33.498409 53.769318
56.679901 33.449905 54.940605
55.766838 33.566734 55.677143
54.029263 33.849854 55.947266
52.263435 34.140759 56.162521
50.652283 34.402565 56.426311
49.188591 34.636406 56.74044
47.906906 34.834934 57.13155
58.571007 32.593178 64.85862
58.491844 32.538769 66.123909
58.492989 32.467403 67.448692
58.508713 32.392483 68.793198
59.308731 32.154232 70.677368
57.096935 35.249416 2.5022202
57.088978 35.201008 3.3756485
59.023811 34.803791 4.1651497
58.901863 34.7742 5.0723419
58.707474 34.757504 5.9846916
58.463207 34.749733 6.8996868
58.218712 34.741955 7.8155403
58.03627 34.72282 8.7324905
57.903378 34.694508 9.6522541
57.769691 34.666161 10.575151
57.635208 34.637775 11.501188
57.500599 34.609234 12.430407
57.365543 34.580593 13.362801
57.230015 34.551857 14.298403
57.094017 34.523018 15.237228
56.995304 34.487026 16.182552
56.915764 34.447205 17.133839
56.835499 34.407257 18.089607
56.755192 34.367054 19.049946
56.674171 34.326725 20.01482
56.592758 34.286205 20.984297
56.511299 34.245422 21.958464
56.429104 34.204514 22.937248
56.346855 34.163342 23.92079
56.26387 34.122036 24.909019
56.180824 34.080467 25.90209
56.097038 34.038761 26.899891
56.012844 33.996853 27.902538
55.928589 33.954674 28.910145
55.843559 33.912357 29.922585
55.758476 33.869762 30.94006
55.731018 33.815517 31.977947
55.709038 33.759815 33.023876
55.687271 33.703686 34.076591
55.527084 33.674747 35.09436
55.29068 33.660843 36.091743
55.136513 33.630344 37.117607
55.27713 33.540295 38.246868
55.30117 33.47316 39.346329
55.438129 33.382664 40.495041
55.785812 33.248657 41.734039
56.158604 33.108582 42.999401
56.415592 32.99123 44.235802
56.575169 32.893074 45.446579
56.742123 32.792694 46.672798
56.924194 32.688461 47.918308
57.082695 32.588375 49.166309
57.065685 32.524174 50.345276
57.003937 32.468876 51.510979
56.945293 32.412518 52.685268
56.886684 32.355743 53.866795
56.827721 32.298626 55.055443
55.946121 32.41584 55.813034
53.903374 32.78149 55.920635
51.899673 33.141499 56.00256
50.053211 33.470417 56.127846
48.349319 33.771053 56.293953
46.78334 34.044102 56.503662
45.357494 34.288769 56.763809
44.075325 34.503952 57.08226
58.494186 31.284149 67.514374
58.522041 31.201698 68.870026
59.486362 30.912075 70.869125
56.976974 34.325909 2.4505424
56.9417 34.2798 3.3256912
57.559464 34.109364 4.1752014
57.539406 34.059391 5.0657578
57.487656 34.015163 5.9623489
57.41111 33.97541 6.8639584
57.334534 33.935413 7.7697239
57.257263 33.895298 8.679678
57.179642 33.854996 9.5938358
57.101994 33.814442 10.512245
57.023651 33.773762 11.434917
56.945282 33.732826 12.3619
56.866203 33.691769 13.293209
56.787094 33.650452 14.228897
56.707275 33.609009 15.168957
56.62743 33.567299 16.113459
56.555054 33.523834 17.063187
56.507999 33.47504 18.020338
56.46104 33.425907 18.982794
56.413467 33.376572 19.950521
56.365639 33.326965 20.923601
56.317886 33.277016 21.902122
56.269524 33.226852 22.886044
56.220886 33.176414 23.87545
56.171982 33.125694 24.870392
56.122799 33.074688 25.870914
56.073338 33.023396 26.87706
56.023609 32.971809 27.88887
55.973938 32.919865 28.906498
55.923649 32.867695 29.92981
55.873058 32.815231 30.95895
55.885139 32.749321 32.010674
55.901558 32.682045 33.071106
55.918114 32.614281 34.139244
55.583199 32.620205 35.109184
55.376019 32.599121 36.1185
55.272301 32.555912 37.163963
55.499279 32.441895 38.326241
55.6031 32.353424 39.458595
55.712616 32.263107 40.603321
56.130562 32.105698 41.874424
56.577049 31.941 43.175091
56.864788 31.809576 44.431511
57.098789 31.688919 45.681236
57.240143 31.587643 46.905743
57.439507 31.472914 48.167805
57.544315 31.378172 49.400772
57.536552 31.307613 50.592648
57.566166 31.228254 51.810925
57.594845 31.148523 53.038322
57.618641 31.0693 54.272919
57.746262 30.966217 55.571117
66.199265 28.989059 61.322739
54.987694 31.438414 56.556271
52.625534 31.89995 56.453781
50.299732 32.356659 56.315216
48.271309 32.748878 56.295238
46.440384 33.098766 56.345634
44.770241 33.414303 56.451653
43.237808 33.70042 56.60516
41.829556 33.959927 56.802956
40.540962 34.193562 57.047119
38.655136 34.56852 56.857876
38.194191 34.612183 57.605415
36.426525 34.96384 57.424927
35.239677 35.180943 57.618103
57.198517 33.333557 2.3760414
57.111465 33.294994 3.2576599
57.339066 33.193089 4.1282082
57.353134 33.133499 5.0167274
57.338127 33.079403 5.9119034
57.29446 33.030769 6.8129272
57.250896 32.981804 7.7187653
57.206772 32.932648 8.6294594
57.162399 32.883224 9.5450592
57.118126 32.833469 10.465601
57.073277 32.783512 11.391111
57.028187 32.733284 12.32164
56.983185 32.682713 13.257246
56.937603 32.631935 14.197937
56.891777 32.580883 15.143761
56.845692 32.529549 16.09477
56.799351 32.477936 17.051008
56.752754 32.426033 18.012514
56.705906 32.373848 18.97933
56.658791 32.321373 19.951506
56.611774 32.268532 20.929129
56.564137 32.215469 21.912155
56.516232 32.162109 22.900673
56.468071 32.108452 23.894728
56.419624 32.054497 24.894369
56.370914 32.000233 25.899635
56.321922 31.945663 26.910591
56.272655 31.890785 27.927271
56.270172 31.825323 28.960566
56.312458 31.749611 30.011681
56.365067 31.67111 31.073536
56.609779 31.549709 32.194839
56.858269 31.426636 33.330292
57.109501 31.302101 34.479866
56.434467 31.383087 35.363724
56.527206 31.292973 36.479542
56.62336 31.201462 37.606335
57.23386 30.993504 38.917103
57.345619 30.896769 40.075951
57.105618 30.879114 41.117775
57.925152 30.620235 42.559574
58.595009 30.3937 43.972069
65.862 28.3256 53.194702
65.808228 28.254639 54.477673
65.75412 28.183239 55.768593
58.580009 29.784801 53.557468
58.591526 29.703014 54.801819
58.603115 29.620607 56.055656
58.614388 29.537666 57.318886
58.62616 29.453989 58.592026
58.663807 29.363495 59.889469
58.702583 29.272051 61.198166
58.741283 29.179939 62.51757
47.360168 31.852177 56.950104
45.087738 32.330833 56.698402
43.198761 32.719578 56.632423
41.518219 33.060238 56.654957
39.998272 33.364029 56.742977
38.422848 33.683842 56.756886
36.897644 33.993679 56.766907
36.171291 34.107254 57.303959
57.92173 32.227913 2.2672577
57.62801 32.23024 3.1692276
58.312828 32.025917 4.0241966
59.134884 31.791241 4.8930168
61.577168 29.19145 35.768387
58.18042 29.911705 35.887909
58.368404 29.792786 37.056984
61.706772 28.849913 40.434307
64.835213 27.263283 54.054619
64.749329 27.196602 55.320107
59.00626 28.530064 53.801716
59.066753 28.431179 55.079372
59.148277 28.326321 56.378838
59.230549 28.220497 57.690277
59.313995 28.11359 59.014046
59.3978 28.005795 60.349915
59.482388 27.896994 61.69825
59.567345 27.787277 63.058983
59.653526 27.676422 64.43277
59.814774 27.545507 65.865532
59.997173 27.408159 67.326508
60.235939 27.25522 68.839622
40.43853 32.290039 57.089767
38.34116 32.762054 56.75782
36.81266 33.089252 56.765614
36.076241 33.211468 57.296173
34.719215 33.497868 57.363976
62.916683 26.535408 53.189636
60.384228 27.101177 53.257206
