# .PCD v0.7 - Point Cloud Data file format
VERSION 0.7
FIELDS x y z
SIZE 4 4 4
TYPE F F F
COUNT 1 1 1
WIDTH 1610
HEIGHT 1
VIEWPOINT 0 0 0 1 0 0 0
POINTS 1610
DATA ascii
14.761461 25.688217 4.9697952
18.308426 27.043037 6.1956253
22.026722 28.463299 7.4361877
33.825874 32.970173 5.6633682
33.888798 32.994209 8.5304794
33.823727 32.969353 11.445168
33.813961 32.965622 14.339073
33.81179 32.964794 17.230194
33.810703 32.964378 20.120888
33.808537 32.963551 23.011909
18.978649 27.299038 30.3843
18.927841 27.279633 33.116982
18.988237 27.302702 35.817467
18.480152 27.108631 38.671364
17.169048 26.607832 41.718788
16.355305 26.29701 44.61433
15.953835 26.143663 47.395096
15.413281 25.937189 50.197243
15.256239 25.877205 52.906597
15.267379 25.88146 55.579052
15.213531 25.860891 58.263863
15.043802 25.796061 60.967598
14.908554 25.7444 63.661812
14.775335 25.693516 66.352554
14.641331 25.64233 69.040329
11.125404 24.299366 72.157394
11.526405 24.452536 74.737442
11.928841 24.606253 77.326622
12.332701 24.760513 79.925064
12.738922 24.915676 82.532677
13.145668 25.071039 85.149696
13.553892 25.226967 87.776093
13.964491 25.383801 90.411865
14.375647 25.540848 93.057182
14.788273 25.698458 95.711998
15.193115 25.853094 98.376526
14.542542 25.604597 101.05045
14.542547 25.604599 103.7168
15.979057 26.153297 106.41656
15.852986 26.105143 109.09523
15.727982 26.057394 111.77101
15.603115 26.009701 114.44391
15.98 26.153656 117.14887
16.294384 26.273741 119.85753
10.365007 24.008921 121.99286
9.993803 23.867134 124.57183
10.102024 23.90847 127.19788
10.210335 23.949841 129.82648
10.574221 24.088833 132.49324
11.29388 24.363718 135.22223
12.018162 24.640369 137.96869
12.747107 24.9188 140.73282
14.639482 25.641624 143.73027
18.928793 27.279995 147.24538
22.887886 28.792234 150.79114
22.875992 28.787691 153.55186
22.830423 28.770287 156.3045
21.569056 28.288486 158.75929
20.682358 27.949799 161.28058
20.737833 27.970987 164.03314
20.812815 27.999628 166.79245
20.424839 27.851435 169.41895
15.393745 25.929728 170.63312
1.0010319 20.432199 168.79214
4.6003971 21.807035 172.4726
13.477806 22.368637 0.61559296
13.874563 22.515268 3.0886765
17.496054 23.853676 4.2270432
21.548904 25.351505 5.2744904
33.885372 29.910742 3.1553726
34.321568 30.071949 5.8680115
40.900158 32.503223 6.3153458
40.430393 32.329613 9.4444046
39.838791 32.110973 12.604897
39.200333 31.875013 15.767418
38.56506 31.640232 18.914124
37.932953 31.406622 22.045143
37.304001 31.174177 25.160553
33.763321 29.865635 29.104103
33.91346 29.921122 31.940254
34.08107 29.983067 34.775208
34.175278 30.017885 37.63274
33.807587 29.881994 40.604752
22.382408 25.659546 46.128353
20.342916 24.905804 49.32304
19.736828 24.681808 52.171833
19.200811 24.483711 54.992798
19.152992 24.466038 57.710938
18.977175 24.401062 60.450176
18.801611 24.336178 63.18531
18.626297 24.271385 65.916344
11.692768 21.708933 69.582138
12.095034 21.857601 72.153282
12.497807 22.006454 74.733673
12.902025 22.155844 77.323227
13.30769 22.305767 79.92202
13.715687 22.456553 82.530029
14.124258 22.60755 85.147408
14.53429 22.759087 87.774185
14.946699 22.911503 90.410339
15.359688 23.064133 93.056023
15.852206 23.246153 95.709427
16.400051 23.448622 98.373589
16.372965 23.438612 101.05045
16.373913 23.438963 103.72697
16.589796 23.518747 106.40853
16.46452 23.472448 109.08324
16.338434 23.42585 111.75499
16.213417 23.379648 114.4239
16.46825 23.473827 117.11629
15.281966 23.035408 119.6978
14.106857 22.601116 122.25289
13.554325 22.396917 124.84561
13.575272 22.404657 127.49196
13.414999 22.345425 130.11571
14.326792 22.6824 132.88466
15.299541 23.041903 135.6839
16.280571 23.404467 138.50699
17.480026 23.847754 141.39075
19.985054 24.773546 144.54407
22.905479 25.852859 147.83717
23.92169 26.228424 150.80109
23.957563 26.241682 153.57289
22.449265 25.684254 155.98802
21.665115 25.394455 158.54427
20.97739 25.140289 161.10693
21.046368 25.165779 163.85513
16.574837 23.513218 165.34344
20.647617 25.018414 169.20099
15.159 22.989964 170.27505
1.817543 18.059307 168.76752
5.4919262 19.417263 172.46655
13.329941 19.509817 -1.5369186
14.105024 19.786743 0.75397491
14.501392 19.92836 3.2242813
19.395809 21.677055 3.8368835
32.996281 26.536283 1.0494308
33.032631 26.549273 3.8923416
37.578484 28.173431 5.0204849
38.1572 28.380198 31.050346
34.92902 27.226822 34.823006
34.969181 27.241169 37.692268
34.884525 27.210924 40.592682
34.809708 27.184193 43.488876
34.676445 27.13658 46.396149
34.518436 27.080128 49.30547
34.206264 26.968592 52.241383
33.891628 26.856178 55.170536
33.667984 26.776272 58.076706
33.526279 26.725645 60.964508
22.652817 22.840731 65.457413
14.47851 19.920183 69.326202
15.095766 20.14072 71.891617
15.715417 20.36211 74.470978
16.339352 20.585032 77.064194
16.912479 20.789801 79.676468
17.46312 20.986536 82.303772
18.015419 21.183865 84.943665
18.571293 21.382469 87.5961
19.128893 21.58169 90.261261
19.690113 21.782206 92.939148
20.25404 21.983686 95.629913
20.819715 22.185795 98.333649
18.813202 21.468899 101.05044
18.813202 21.468899 103.74411
20.37138 22.02561 106.47369
19.677681 21.777763 109.16133
18.988054 21.53137 111.83315
18.498354 21.356409 114.5006
18.325178 21.294537 117.17865
18.346926 21.302305 119.86843
18.368689 21.310081 122.55872
18.368677 21.310078 125.24726
18.094673 21.212179 127.90421
18.018253 21.184875 130.57991
19.018494 21.542246 133.40277
20.027374 21.902702 136.25
21.360928 22.379158 139.17288
23.040972 22.979412 142.18645
25.818195 23.97167 145.44113
27.471531 24.56238 148.53961
27.320477 24.508411 151.30173
25.053988 23.698631 153.597
23.110874 23.004387 155.91458
22.461653 22.77243 158.5006
21.581432 22.457943 161.01306
21.363853 22.380205 163.68097
21.304668 22.35906 166.38763
20.889286 22.210651 168.99033
14.583754 19.957785 169.81784
2.7750511 15.738726 168.78699
6.8601723 17.198273 172.61444
13.768635 16.880013 -1.3130722
14.604568 17.168489 0.9469223
15.970549 17.639881 3.000946
21.287743 19.474815 3.4531479
32.969944 23.506279 1.4696884
33.793926 23.79063 3.9932022
40.8792 26.23572 4.1632996
39.348957 25.707642 57.274376
36.610844 24.762735 60.632904
34.149963 23.913498 63.887192
18.389496 18.474648 68.917343
19.025396 18.694092 71.514771
19.663809 18.914406 74.126526
20.306673 19.136253 76.752487
20.952099 19.358986 79.39299
21.602064 19.583286 82.047935
22.254654 19.808491 84.717628
22.911816 20.035275 87.402039
23.571651 20.26298 90.101425
24.204477 20.481365 92.816879
24.787947 20.682716 95.547997
25.37425 20.885046 98.292496
22.118397 19.761471 101.05045
22.118393 19.761469 103.77103
24.767056 20.675507 106.5524
24.396679 20.547693 109.29063
24.027441 20.420271 112.02041
23.659325 20.293236 114.74178
23.324776 20.177784 117.45699
23.34737 20.185581 120.19323
23.214773 20.139824 122.91573
22.930433 20.0417 125.61951
22.646759 19.943806 128.31685
22.827637 20.006226 131.06631
23.952333 20.394352 133.95
25.341282 20.873671 136.89894
26.745466 21.358246 139.88223
31.522139 23.006651 143.47858
30.365793 22.607601 146.0947
25.837959 21.045071 153.55275
25.204456 20.826454 156.17055
24.150047 20.462582 158.67233
23.543095 20.253124 161.26291
24.194584 20.477951 164.17189
23.254057 20.153381 166.65714
22.916716 20.036964 169.29391
13.627487 16.831305 169.25064
3.7331219 13.416813 168.80652
8.2349758 14.970379 172.76324
17.603868 15.39336 0.052116394
17.99976 15.525192 2.5424728
33.218475 20.593096 -1.0598679
34.037518 20.865841 1.4487457
36.104115 21.554028 3.491066
22.403578 16.991686 68.497635
23.057896 17.209576 71.12809
23.716843 17.429008 73.772934
24.378448 17.649326 76.432594
25.043715 17.870861 79.107071
25.713717 18.093975 81.796371
26.386463 18.318005 84.500786
27.064001 18.543627 87.220322
27.744314 18.770176 89.955223
28.429501 18.998344 92.705536
31.507427 20.023308 95.416786
38.316929 22.290905 98.155746
27.098309 18.555052 101.05044
27.098324 18.555058 103.81686
33.728004 20.762772 106.7349
32.879223 20.480122 109.548
32.037281 20.199753 112.34201
31.199995 19.920933 115.11703
30.328953 19.630871 117.87057
28.940037 19.168354 120.56277
28.44277 19.002764 123.30476
27.947536 18.837849 126.03558
27.4533 18.673265 128.7552
28.809904 19.125021 131.69632
31.722237 20.094841 134.8819
34.703964 21.087769 138.14442
37.759811 22.105381 141.48701
28.435617 19.000381 153.90289
28.044184 18.870033 156.59509
27.907873 18.82464 159.33957
27.476587 18.681021 162.00676
27.957703 18.841232 164.90402
27.13973 18.568846 167.45581
27.719957 18.762062 170.38855
12.582409 13.721191 168.66168
5.7024078 11.430119 169.13803
10.757269 13.113411 173.2782
34.307327 17.968052 -1.0913315
35.290306 18.283604 1.354126
38.438328 19.294157 2.9836807
26.522907 15.469152 68.066978
27.197409 15.685677 70.731117
27.876732 15.903748 73.410065
28.55887 16.122725 76.104172
49.044807 22.698973 86.024933
48.867844 22.642166 89.038094
48.689919 22.585052 92.047272
48.337189 22.471817 95.056358
47.958099 22.350126 98.057716
47.578949 22.228416 101.05045
47.202034 22.107422 104.03455
43.450417 20.903103 106.93323
46.450294 21.866102 109.97711
46.075447 21.745773 112.93559
45.701668 21.625782 115.88561
45.330139 21.506519 118.82724
44.958504 21.387218 121.76043
41.466644 20.266285 124.40086
39.50201 19.635612 127.1183
39.008339 19.477139 129.95853
42.0368 20.449314 133.22873
55.262444 24.694916 168.72052
46.776798 21.970913 169.57379
38.082817 19.180035 170.17686
27.092789 15.652092 169.92824
11.551714 10.663206 168.08176
8.1207333 9.5618172 169.60492
15.28722 11.862352 174.42914
40.603615 16.950897 -0.35161591
41.907742 17.354027 106.87444
44.654285 18.203033 109.87987
55.182045 21.457357 168.42657
46.416527 18.747774 169.20248
37.224266 15.906281 169.66341
25.627857 12.321615 169.2341
10.37612 7.6070251 167.46381
10.870205 7.7597542 170.16949
43.819611 14.893225 106.89416
54.844246 18.171066 168.07104
45.815575 15.486664 168.77164
36.139809 12.609869 169.09283
24.171719 9.0515213 168.54803
10.864809 5.0951138 167.33966
14.990057 6.3216324 171.14743
43.180984 11.683531 109.75927
54.436127 14.898176 167.70097
45.183151 12.255383 168.33612
35.026615 9.3545151 168.5191
22.675613 5.8268757 167.85625
13.331646 3.1580906 167.79514
43.057877 8.6541328 109.72029
44.271301 8.9866142 167.83203
33.765778 6.1080475 167.91019
21.186291 2.6611996 167.17191
18.79487 2.0059395 169.11998
43.502193 5.8003693 109.70065
43.337074 5.7570286 167.32626
32.41832 2.8909931 167.28297
20.51556 -0.23333359 166.72139
42.918526 2.7019348 112.51234
42.271572 2.5395107 166.79092
31.095901 -0.26626205 166.66742
42.830315 -0.24116898 112.46316
43.187485 -3.0575256 112.43398
48.914238 84.314011 82.197571
48.726425 81.365692 84.396957
48.397476 78.265793 86.627861
48.594715 78.401825 84.242203
18.324234 54.118343 174.43059
12.140457 49.755104 173.65314
48.653988 75.518845 86.523582
26.915768 56.852375 174.82204
20.947859 52.544464 174.16005
13.449484 47.131783 173.8493
6.5405502 42.144596 173.1497
10.082472 44.701324 121.74857
10.085443 44.703468 118.79146
10.08939 44.706314 115.83435
10.09334 44.709164 112.87737
10.096312 44.711311 109.92051
10.100269 44.714165 106.9637
10.104218 44.717018 104.00702
10.108173 44.719872 101.05042
10.111139 44.722015 98.093925
10.115097 44.724873 95.137535
10.119047 44.727722 92.181252
48.532078 72.456039 88.831085
30.36729 56.01429 174.21638
22.210625 49.991535 174.36098
14.832485 44.543633 174.02403
8.1078224 39.578251 173.27739
13.58176 43.620117 145.0871
13.496721 43.557327 142.16736
13.450293 43.523041 139.23856
13.407726 43.491615 136.30788
13.366104 43.46088 133.37592
13.32349 43.429413 130.44298
13.280884 43.397957 127.50888
13.239216 43.367188 124.57353
13.19656 43.335693 121.63717
13.153896 43.304192 118.69965
13.111204 43.272667 115.76099
13.069483 43.241859 112.82111
13.026751 43.210308 109.88017
12.984028 43.178764 106.93806
12.968479 43.167282 103.99445
12.971388 43.169426 101.05042
12.975279 43.172302 98.106476
12.97917 43.175179 95.162628
12.982067 43.177311 92.218872
48.225517 69.200523 91.172478
48.062668 69.080276 88.692055
7.5551548 39.170166 82.949043
8.7092628 40.022346 80.040894
17.585995 46.576782 77.995354
18.678053 47.383141 75.245766
19.759026 48.181316 72.524078
34.803028 55.975601 175.91275
31.664009 53.604965 174.38997
23.480377 47.424561 174.56302
16.245924 41.960991 174.19156
9.6806316 37.002777 173.40553
3.2973747 32.182045 172.38435
17.377417 42.81551 147.6149
17.294575 42.752945 144.7215
17.211655 42.690323 141.82587
17.128681 42.627663 138.92796
17.072071 42.584908 136.02356
17.031483 42.554256 133.11517
16.989922 42.522865 130.20584
16.948357 42.491478 127.29539
16.90773 42.460796 124.38368
16.866127 42.429375 121.47098
16.824518 42.397953 118.55714
16.783838 42.367229 115.64212
16.74218 42.33577 112.72604
16.70052 42.304306 109.80884
16.580183 42.213428 106.89263
16.240215 41.956676 103.97614
15.898228 41.698402 101.05043
15.556097 41.440018 98.115417
15.211945 41.180115 95.171051
14.867638 40.920082 92.217346
48.35223 66.208168 91.091751
19.879414 44.705055 86.668892
20.956791 45.518707 83.880363
22.024158 46.324802 81.120148
23.080782 47.12278 78.387756
24.126774 47.912727 75.682747
25.162369 48.694828 73.004761
39.627228 56.328274 174.73215
33.13166 51.311432 174.50348
24.757132 44.843384 174.76616
17.665871 39.366463 174.35982
11.266064 34.423584 173.5318
5.0710716 29.638897 172.4639
21.413452 42.260902 150.02795
21.773911 42.539299 147.0679
22.134022 42.817432 144.1178
22.492006 43.093918 141.17798
22.849689 43.370174 138.24802
23.301321 43.718994 135.31242
23.39286 43.789696 132.44347
23.191742 43.634357 129.61711
22.99115 43.479431 126.78517
22.789251 43.323494 123.94788
22.50378 43.103016 121.11308
21.874973 42.617355 118.29867
21.242388 42.12878 115.46729
18.323872 39.874668 112.74387
17.986408 39.614029 109.83437
21.194767 42.092003 106.81847
21.194759 42.091995 103.93445
17.567345 39.290367 101.05042
21.087536 42.009182 98.164925
22.163067 42.839867 95.308907
48.251747 62.989403 93.510437
24.281544 44.476067 89.683472
25.323904 45.281132 86.913147
26.356714 46.078819 84.170593
27.379242 46.868565 81.455353
28.391632 47.650482 78.767029
29.387272 48.419464 76.104355
30.373215 49.180954 73.467659
21.453667 42.291962 43.440826
21.600683 42.40551 40.602634
21.761154 42.529446 37.772552
21.945032 42.671467 34.954208
22.11314 42.801304 32.13575
21.269842 42.149982 28.975456
21.43631 42.278557 26.151749
21.602509 42.406921 23.33252
21.732906 42.507629 20.504097
21.760241 42.52874 17.63829
21.787567 42.549847 14.773239
21.814882 42.570946 11.908951
21.842199 42.592041 9.0453949
22.009586 42.721325 6.2459183
22.477531 43.082737 3.5910416
42.43441 55.195282 174.31094
34.600632 49.008247 174.61853
26.043602 42.249989 174.96948
19.099903 36.765926 174.52625
12.982841 31.934731 173.61679
6.948843 27.169138 172.51176
23.947561 40.594555 152.74673
25.386044 41.730656 149.53665
25.73703 42.007858 146.60689
26.085934 42.283424 143.68726
26.506594 42.615654 140.7634
26.972734 42.983807 137.84297
27.436758 43.350288 134.93581
27.601978 43.480778 132.0869
27.407175 43.326927 129.29231
27.205013 43.167259 126.49329
26.993713 43.000374 123.68967
26.682068 42.754242 120.88992
26.072704 42.272972 118.10626
25.459703 41.78883 115.30598
24.843039 41.301796 112.48897
24.350994 40.913185 109.64973
27.622831 43.497246 106.69283
27.622833 43.49725 103.87164
25.379833 41.72575 101.05041
26.414335 42.542789 98.212509
47.862892 59.482643 95.967621
47.855141 59.476524 93.425903
29.455658 44.944794 89.866928
30.44977 45.729935 87.139778
31.292709 46.395679 84.427567
32.033844 46.981018 81.728813
32.770355 47.56271 79.050056
33.500637 48.139481 76.390854
34.226376 48.712662 73.751236
22.328091 39.315517 69.211952
22.494358 39.446831 66.345131
22.659468 39.577232 63.482697
22.825226 39.708149 60.624954
23.038857 39.876869 57.781723
23.251141 40.044529 54.944092
23.463009 40.211861 52.112247
23.205822 40.008736 49.169537
23.266552 40.056702 46.303215
23.408733 40.168999 43.461094
23.554317 40.283978 40.623901
23.740303 40.430866 37.803009
24.074432 40.694759 35.034348
24.240635 40.826023 32.219246
23.533527 40.267555 29.106888
23.697899 40.397377 26.288239
23.862015 40.526993 23.474014
24.026754 40.657101 20.664597
24.190357 40.786316 17.859268
24.353695 40.915318 15.058334
24.435257 40.979736 12.226883
24.28462 40.860764 9.2949753
24.296282 40.869972 6.4329376
24.838577 41.298271 3.8206482
40.91333 50.605659 178.23425
45.209694 54.07518 173.89455
36.073395 46.697166 174.73425
27.339836 39.644382 175.17297
20.619257 34.217182 174.66599
14.732388 29.463242 173.69235
8.9044228 24.75687 172.53555
28.268253 40.394127 152.1329
29.279736 41.210949 149.0551
29.670504 41.526512 146.14407
30.12652 41.894768 143.23029
30.580463 42.261353 140.32965
31.032385 42.626301 137.44205
31.48311 42.990284 134.56723
31.714043 43.176773 131.73871
31.510952 43.012768 128.97722
31.307459 42.848434 126.21008
31.102709 42.68309 123.43742
30.768442 42.413155 120.67168
30.393858 42.110657 117.9
30.132509 41.899605 115.10997
29.871349 41.688705 112.31263
29.608635 41.476555 109.50807
32.464619 43.782902 106.60917
32.46463 43.782913 103.8298
30.527672 42.218719 101.05042
31.4063 42.928253 98.256279
48.078312 56.391735 95.927315
32.89481 44.130299 92.730293
33.631626 44.725319 89.998032
34.362167 45.315266 87.285904
35.088161 45.901543 84.593781
35.808029 46.482872 81.921295
36.523453 47.060612 79.268394
37.232861 47.633492 76.63472
37.937923 48.202866 74.020226
38.637108 48.767494 71.4245
24.399969 37.270294 66.34787
24.564451 37.403122 63.485809
24.727791 37.535027 60.628124
24.987129 37.744453 57.79509
25.258406 37.963524 54.971954
25.455557 38.122734 52.138798
25.183029 37.902657 49.193214
25.245834 37.953373 46.328903
25.370457 38.054012 43.483597
25.505676 38.163208 40.644867
25.718437 38.335022 37.83371
26.072374 38.620846 35.073792
26.362093 38.854809 32.302246
25.788967 38.391979 29.237854
25.951275 38.523052 26.424225
26.082161 38.62875 23.603287
25.931669 38.507221 20.676086
25.780926 38.385487 17.744583
25.630877 38.264313 14.809174
25.479727 38.14225 11.86911
25.477932 38.140804 8.9914856
25.577255 38.221012 6.1603622
25.677347 38.301842 3.3323746
44.54443 50.153008 177.46162
47.333294 52.455589 173.72737
37.782738 44.570305 174.76218
31.36854 39.274513 174.38
31.108189 39.059555 171.65128
30.370445 38.450447 169.07651
29.620314 37.831112 166.485
28.863697 37.206421 163.87436
28.102261 36.577751 161.24385
28.127796 36.598835 158.3703
29.039207 37.35133 155.2605
32.603798 40.294388 151.50401
33.262573 40.838295 148.54337
33.714058 41.211056 145.64796
34.164322 41.582809 142.76553
34.612553 41.952888 139.89616
35.057922 42.320599 137.03998
35.502098 42.687328 134.1965
35.642639 42.80336 131.41257
35.551144 42.727821 128.66525
35.353165 42.564362 125.92886
35.153969 42.399899 123.18701
34.913254 42.201157 120.44366
34.604301 41.946075 117.6993
34.363056 41.746895 114.94146
34.141109 41.563644 112.17576
33.919518 41.380692 109.40379
36.517265 43.525486 106.54618
36.517265 43.52549 103.7983
34.541569 41.894279 101.05043
47.870361 52.899014 98.462379
35.978458 43.080627 95.539497
36.689484 43.667675 92.814049
37.394554 44.249809 90.108299
38.103302 44.834976 87.422661
38.808491 45.417206 84.756683
39.507759 45.994545 82.10997
40.20277 46.568375 79.482475
40.891991 47.137417 76.873802
41.577034 47.703018 74.283966
42.256416 48.263939 71.712524
26.65864 35.385845 66.410278
26.468231 35.228638 63.488758
26.630945 35.36298 60.631477
26.906597 35.590569 57.802612
27.235695 35.862282 54.993553
27.414917 36.010258 52.157906
27.159307 35.799217 49.217102
27.222378 35.851288 46.354355
27.345757 35.953156 43.51033
27.372366 35.975124 40.641193
27.29517 35.911388 37.740673
27.594711 36.158699 34.959938
27.893377 36.405293 32.187355
26.499556 35.254501 28.827492
26.252392 35.05043 25.848091
26.004639 34.845879 22.861526
25.755384 34.640083 19.867378
25.65262 34.555241 16.926025
25.680584 34.578327 14.036987
25.742771 34.629669 11.163689
25.944405 34.796146 8.35495
26.14115 34.958588 5.5496216
37.58284 44.405262 8.1325378
38.081017 44.816574 5.6451263
38.550495 45.204193 3.1572113
46.767113 48.581291 177.255
49.331032 50.745392 173.60716
39.541664 42.48259 174.77159
35.74921 39.281536 173.44228
35.278881 38.884552 170.82504
34.564117 38.28125 168.27782
33.844975 37.674248 165.71172
33.118038 37.060673 163.12759
32.497253 36.536694 160.49115
32.507454 36.545303 157.65773
33.899521 37.720291 154.45154
37.108658 40.428989 150.82014
37.458725 40.724464 147.97061
37.807537 41.018883 145.1313
38.154289 41.311565 142.30231
38.583801 41.674095 139.46675
39.015369 42.038368 136.64302
39.445831 42.401703 133.83173
39.435524 42.393002 131.10156
39.365761 42.334118 128.37955
39.295944 42.275188 125.65556
39.123566 42.129688 122.94125
38.885544 41.928783 120.22858
38.58699 41.676788 117.5143
38.287518 41.424019 114.79159
37.987106 41.170448 112.06043
37.74868 40.969204 109.31809
40.056423 42.917076 106.49662
40.056419 42.917072 103.77352
38.394913 41.514664 101.05042
47.785767 49.441097 98.437157
39.78912 42.691456 95.596626
40.479099 43.273842 92.899139
41.163353 43.851391 90.22094
41.843506 44.42548 87.561897
42.518806 44.995472 84.921753
43.188576 45.560799 82.300278
43.854366 46.122765 79.697357
44.514725 46.680145 77.112686
45.031597 47.116417 74.526375
45.506248 47.517048 71.948158
29.291113 33.830524 66.537613
28.895084 33.49625 63.588379
28.532909 33.190556 60.634644
28.824514 33.436687 57.809944
28.660255 33.298042 54.889915
28.110809 32.834278 51.872154
26.939138 31.845318 48.679642
26.733086 31.671396 45.714516
26.346872 31.345411 42.692352
25.978256 31.034277 39.664444
26.202118 31.223228 36.811287
40.799965 43.54467 38.662148
41.211594 43.892109 36.089989
41.620682 44.237404 33.528618
41.609829 44.228241 30.823746
41.066017 43.769234 27.914078
41.142342 43.833656 25.235695
41.219379 43.898682 22.559769
41.295586 43.963005 19.885681
41.37249 44.027916 17.214066
41.449348 44.092785 14.544617
41.52536 44.156944 11.876953
41.437698 44.082954 9.13237
41.852783 44.433308 6.6353378
42.298347 44.809391 4.1656799
42.706604 45.153984 1.6890869
48.978523 47.018673 177.04921
51.322876 49.041443 173.48709
41.687775 40.728027 174.63124
37.188969 36.846336 173.58365
37.279797 36.924706 170.76135
36.934834 36.627064 168.09164
36.588623 36.328342 165.41248
36.224659 36.014305 162.72897
36.304008 36.082771 159.9015
36.304825 36.083473 157.09883
38.811935 38.246677 153.6132
41.249252 40.349655 150.21751
41.586945 40.641029 147.40369
41.924217 40.932034 144.59962
42.2603 41.222015 141.80548
42.595188 41.510963 139.02124
42.928905 41.798904 136.24681
43.21917 42.049351 133.48944
43.151501 41.990967 130.79684
43.083775 41.932533 128.10236
43.015228 41.873386 125.40601
42.947407 41.814869 122.70761
42.771465 41.663063 120.01814
42.482151 41.413433 117.33335
42.191936 41.163029 114.64035
41.900047 40.911179 111.93911
41.608055 40.659241 109.22951
43.223007 42.052666 106.45681
43.223026 42.052681 103.75362
47.744186 45.953655 101.05043
42.606033 41.520325 98.338379
43.096863 41.943825 95.640411
43.58593 42.365803 92.956451
44.071678 42.78492 90.286324
44.554947 43.201897 87.629959
45.036491 43.617386 84.987297
45.514793 44.030075 82.358139
45.990669 44.440674 79.742416
46.464848 44.849808 77.140121
46.935875 45.256226 74.55098
47.405258 45.661221 71.975098
42.216019 41.183807 68.438751
41.922653 40.930687 65.666412
41.636215 40.683537 62.887062
41.386509 40.468086 60.107376
41.456253 40.528263 57.393845
41.561123 40.618744 54.690872
41.588505 40.642372 51.970921
41.719814 40.755669 49.28006
41.861855 40.878227 46.596031
42.020039 41.014713 43.920975
42.259537 41.221355 41.276089
42.659409 41.566376 38.690987
43.066071 41.917252 36.11969
43.435719 42.236198 33.546783
43.484783 42.27853 30.864944
42.996742 41.857437 27.976486
43.07299 41.923225 25.300674
43.148426 41.988312 22.626709
43.224556 42.054001 19.955215
43.168423 42.005566 17.227066
42.999058 41.859436 14.445358
42.830154 41.713699 11.658997
42.999058 41.859436 9.0325317
43.356686 42.168007 6.5056458
43.509315 42.299698 3.8831787
50.64183 44.991581 177.06964
53.516426 47.526825 173.28296
43.994457 39.128937 174.42548
38.555328 34.331905 173.75534
39.157291 34.862804 170.74112
38.781601 34.531464 168.08405
38.181374 34.002094 165.49084
37.577415 33.469437 162.88144
36.96883 32.932693 160.25598
37.600452 33.489754 157.25378
41.086216 36.564014 153.48474
45.274063 40.257484 149.63364
44.130585 39.248993 147.21602
44.098305 39.220524 144.50787
44.124428 39.243565 141.78612
44.149788 39.26593 139.06525
44.175911 39.288971 136.34499
44.202026 39.312 133.62549
44.680767 39.734226 130.83466
45.252808 40.238735 128.04417
45.157822 40.154968 125.35718
45.062775 40.07114 122.66743
44.956947 39.977802 119.97604
44.710556 39.760498 117.29379
44.452038 39.532501 114.60527
44.188194 39.299805 111.90958
43.923615 39.066456 109.2063
45.537132 40.489498 106.44093
47.015171 41.793053 103.72428
47.421841 42.151714 101.05041
44.598217 39.661423 98.341576
45.040695 40.051666 95.645531
45.52425 40.478138 92.964081
46.004562 40.901745 90.296463
46.482403 41.323177 87.642548
46.958538 41.743103 85.00235
47.43148 42.160213 82.375595
47.902 42.575188 79.762268
48.37088 42.988716 77.162338
48.836624 43.399479 74.575546
44.649441 39.706596 71.2612
44.360867 39.452091 68.502945
44.115204 39.235432 65.744415
43.869686 39.018894 62.978817
43.623512 38.801781 60.205948
43.69149 38.861736 57.498734
43.764046 38.925724 54.794621
43.472725 38.668797 51.997749
43.513733 38.704964 49.283894
43.634338 38.811329 46.594254
43.792595 38.950905 43.919567
44.129051 39.247643 41.306213
44.517132 39.589912 38.719803
44.899025 39.92672 36.142471
45.221657 40.211266 33.554749
45.358299 40.331776 30.906357
44.924179 39.948906 28.038803
44.899025 39.92672 25.324478
44.731949 39.779366 22.54982
44.56456 39.631741 19.770218
44.396885 39.483856 16.985611
44.228905 39.335709 14.196014
44.135967 39.253742 11.437408
44.288765 39.3885 8.7970734
44.434422 39.516964 6.1575623
44.538548 39.608795 3.5006104
51.840675 42.543903 177.28735
55.086899 45.470169 173.32994
46.456409 37.690331 174.1545
39.785339 31.676785 173.98212
40.098351 31.958942 171.06268
40.025452 31.893232 168.28777
39.433811 31.359905 165.68512
38.838486 30.823256 163.06635
38.212242 30.258739 160.43965
37.932781 30.006823 157.69328
40.852341 32.638622 154.05034
46.959793 38.1441 149.65404
49.175018 40.140987 146.40338
48.917526 39.908871 143.79578
47.808617 38.909264 141.36734
46.685421 37.89677 138.90938
45.549191 36.872532 136.42107
44.798805 36.19611 133.83185
44.855797 36.247478 131.09091
45.563702 36.885612 128.2565
46.266266 37.518932 125.44346
46.963554 38.147488 122.65159
46.998169 38.178692 119.9479
46.805355 38.004883 117.26517
46.561539 37.785099 114.58052
46.317825 37.565403 111.88876
46.057507 37.330746 109.19058
47.330086 38.477898 106.44001
47.545727 38.672283 103.74207
46.369347 37.611851 101.05042
46.781998 37.983829 98.34761
47.19281 38.354153 95.656822
47.601814 38.722839 92.977966
48.009739 39.090561 90.311005
48.415127 39.45599 87.655777
48.876247 39.871662 85.017281
49.344582 40.293835 82.393021
49.809788 40.713188 79.782066
50.273361 41.131073 77.184517
50.733841 41.546165 74.600052
46.816673 38.015087 71.325195
46.575901 37.798046 68.580681
46.334488 37.580429 65.828987
46.092457 37.362251 63.070133
45.849785 37.143497 60.304047
45.915268 37.202526 57.602936
45.643135 36.957214 54.819847
45.355644 36.698063 52.024765
45.308159 36.655258 49.287926
45.40617 36.743607 46.592243
45.664501 36.976479 43.948631
45.996689 37.275921 41.336315
46.367825 37.610477 38.746803
46.687683 37.898811 36.150154
46.737492 37.94371 33.464165
44.271172 35.720478 29.823448
43.777153 35.27515 26.889
43.281311 34.828178 23.939346
43.39399 34.929752 21.233154
43.571323 35.089607 18.558586
43.748329 35.249168 15.889061
43.925007 35.408432 13.224564
44.101349 35.567394 10.565056
44.213821 35.668777 7.8789673
44.576675 35.995872 5.3242569
45.544609 36.868401 3.0985413
52.983147 40.023888 177.53337
56.660072 43.411438 173.37671
49.185505 36.525124 173.77185
40.512482 28.534666 174.40622
40.158619 28.208652 171.71539
39.719765 27.804337 169.04424
39.804245 27.882168 166.1825
39.888672 27.959949 163.32324
38.94857 27.093834 160.784
37.659447 25.906166 158.32002
33.974182 22.510931 156.48987
48.55138 35.940903 149.69981
50.748844 37.965424 146.4458
52.89492 39.942604 143.26874
53.828949 40.803127 140.42334
53.303303 40.318848 137.90709
52.773811 39.831028 135.37605
52.241196 39.340328 132.82993
51.7061 38.847343 130.26851
51.167084 38.35075 127.69185
50.625553 37.851837 125.09964
50.08004 37.349258 122.49191
49.531223 36.843632 119.86842
48.979828 36.335629 117.22895
48.424324 35.823849 114.57351
48.08791 35.513905 111.88876
48.169685 35.589249 109.17557
48.649921 36.031689 106.45301
48.649914 36.031681 103.75172
48.549137 35.938835 101.05042
48.956024 36.313705 98.353645
49.361118 36.686916 95.668831
49.764416 37.058472 92.995895
50.166664 37.429062 90.334793
50.566399 37.79734 87.685379
50.964378 38.164001 85.047615
51.360626 38.52906 82.421402
51.755127 38.892517 79.806709
52.1716 39.276215 77.206551
52.627571 39.696297 74.624519
49.018471 36.371235 71.396065
48.781132 36.152573 68.658173
48.543159 35.933331 65.913177
48.304588 35.713535 63.161011
48.064636 35.492462 60.401505
47.805233 35.253475 57.630341
47.52092 34.991539 54.845257
47.235741 34.728806 52.051552
47.10231 34.605873 49.291973
47.203907 34.699478 46.597839
47.53376 35.003368 43.977425
46.309834 33.875767 40.862312
45.398556 33.036205 37.817165
44.598381 32.299004 34.7845
44.080181 31.821587 31.832245
40.94854 28.936407 8.1573334
44.877785 32.556419 7.3138962
45.447235 33.081051 4.851059
46.319786 33.884933 2.5660553
52.031441 35.50882 178.68915
57.840679 40.978508 173.58817
51.889088 35.374786 173.39203
43.21254 27.205381 174.07422
40.220833 24.388538 172.3801
39.5583 23.764732 169.76385
39.396305 23.612206 166.95631
39.141567 23.372356 164.17435
50.145233 33.732864 149.7459
52.326332 35.786472 146.48807
54.298717 37.643574 143.34502
55.177353 38.470856 140.50523
55.260696 38.549324 137.85751
55.343231 38.627033 135.21245
55.426399 38.705341 132.56973
55.508789 38.782917 129.92963
55.59182 38.861092 127.29185
55.674053 38.938519 124.65669
55.756908 39.016533 122.02388
55.838985 39.093811 119.39365
55.921692 39.171684 116.76579
56.003624 39.248833 114.14045
55.925171 39.174957 111.52713
55.559029 38.830219 108.92433
55.192066 38.484707 106.31062
54.82357 38.137749 103.68602
54.452831 37.788677 101.05042
54.081223 37.438793 98.40377
53.707367 37.086784 95.745972
53.332645 36.733971 93.076996
52.956337 36.379654 90.396759
52.577717 36.023163 87.705139
50.826668 34.374466 84.879517
51.337151 34.855106 82.237617
51.844738 35.333031 79.61058
52.349472 35.808262 76.998291
52.851402 36.280853 74.400635
47.200699 30.96043 70.809441
47.085056 30.851549 68.039566
46.973122 30.746155 65.266983
46.860268 30.6399 62.490887
46.813412 30.595783 59.726158
47.042908 30.811863 57.025917
47.206814 30.96619 54.315903
46.140057 29.961784 51.280693
44.407021 28.330046 48.025051
40.554932 24.703108 7.0595322
45.733521 29.57901 6.8349686
46.307884 30.119804 4.3634796
46.965446 30.73893 1.9537354
58.559887 38.080688 173.9982
54.608738 34.278893 172.9982
46.340218 26.322937 173.56839
39.318619 19.566765 173.42068
44.393261 24.449581 168.69322
27.983852 8.6604729 171.55392
22.422211 3.3090706 170.32971
51.742847 31.521343 149.79184
53.737244 33.440346 146.57381
55.545719 35.180458 143.46056
56.31237 35.918129 140.6369
56.394745 35.997391 137.98044
56.47773 36.07724 135.32635
56.559944 36.156345 132.67488
56.642788 36.236053 130.0258
56.724846 36.31501 127.37933
56.807518 36.394558 124.73524
56.88942 36.473366 122.09373
56.971943 36.552769 119.45463
57.053688 36.631424 116.81808
57.136063 36.710682 114.18392
57.217648 36.789185 111.55233
57.299873 36.868301 108.92313
57.381306 36.946655 106.29644
57.463356 37.025608 103.67221
57.544655 37.103836 101.05043
57.626568 37.182648 98.431107
57.707699 37.260712 95.814224
57.789452 37.339375 93.199806
57.870445 37.417305 90.587814
57.952038 37.495815 87.97831
48.74165 28.633593 84.532318
49.269062 29.141068 81.834846
55.143242 34.793198 79.796913
54.234848 33.919144 77.017181
50.832455 30.645363 73.834854
41.104259 21.284904 6.4083862
45.948589 25.946114 6.0188522
46.455597 26.433954 3.4908447
58.264305 34.144081 174.84818
57.436203 33.329842 172.55232
49.424858 25.452637 173.06952
42.369072 18.514984 172.98021
36.377716 12.623941 172.28821
30.78088 7.1208153 171.27625
25.172169 1.6060104 170.09808
54.999691 30.934128 146.6996
56.800259 32.704548 143.57654
57.4543 33.347637 140.76958
57.537106 33.429054 138.104
57.619125 33.509701 135.44113
57.701771 33.590965 132.78062
57.783653 33.671474 130.12274
57.866142 33.752583 127.46725
57.947861 33.832932 124.81441
58.030193 33.913887 122.16395
58.111755 33.994083 119.51608
58.193932 34.074886 116.87065
58.275352 34.154942 114.22775
58.357376 34.235588 111.58731
58.448959 34.325642 108.9489
58.544563 34.419647 106.31317
58.639381 34.512878 103.68035
58.734085 34.605995 101.05043
58.828705 34.699028 98.423378
58.923222 34.791962 95.799179
59.017609 34.884773 93.177864
59.111923 34.977501 90.559425
59.20612 35.070122 87.943817
57.50441 33.396908 85.167343
57.18866 33.086445 82.486549
56.650738 32.557529 79.769196
55.822701 31.743359 76.995766
48.726688 24.766153 73.244652
45.076599 21.177179 4.6248779
46.368458 22.447407 2.4759598
56.493362 28.639307 176.34927
60.228149 32.391785 172.11221
52.470337 24.597225 172.57629
45.490295 17.58411 172.50375
39.371918 11.436749 171.89951
33.672272 5.7101021 170.95964
28.047977 0.05916214 169.81934
58.060982 30.21435 143.69333
58.604599 30.760544 140.90298
58.686436 30.84277 138.22858
58.768898 30.925625 135.55653
58.858875 31.016026 132.88565
58.954292 31.111897 130.21661
59.049622 31.207676 127.5505
59.144829 31.303331 124.88734
59.239922 31.39888 122.22711
59.33493 31.494335 119.56982
59.429821 31.58968 116.91545
59.524605 31.684912 114.26401
59.619301 31.780056 111.61548
59.713886 31.875088 108.96984
59.808361 31.970011 106.32715
59.902748 32.064842 103.68733
59.997013 32.159554 101.05043
60.09119 32.254177 98.416397
60.185246 32.348679 95.785278
60.279217 32.443092 93.157021
60.37307 32.537395 90.531647
57.460526 29.61105 87.678429
56.678009 28.824825 84.931961
60.846359 29.268604 172.57318
55.478016 23.757175 172.08829
48.570427 16.66548 172.03357
42.333618 10.262438 171.51505
36.589367 4.3650875 170.62747
55.907036 24.197628 114.67829
56.629852 24.939713 111.90789
57.346764 25.675732 109.16019
58.057816 26.405737 106.43488
58.763107 27.129829 103.73171
59.462685 27.848049 101.05043
60.156631 28.56049 98.390732
61.454666 29.893124 95.771301
61.54818 29.989132 93.136101
61.641586 30.08503 90.503784
58.444214 22.927767 171.60721
51.610287 15.758852 171.56953
45.400421 9.2445984 171.08318
39.539112 3.0959854 170.27673
46.644539 10.549694 112.64461
59.882137 20.51421 171.74498
54.609917 14.863211 171.11182
48.429863 8.2391548 170.65659
42.557556 1.9449539 169.89375
46.103855 5.7460384 115.73576
55.745773 11.980379 171.38962
51.422615 7.2458839 170.23517
46.30632 1.6427803 115.87296
49.343513 84.98632 82.307098
49.2836 82.506912 82.297928
49.247623 80.020752 84.906509
49.112484 77.511841 84.922729
49.110146 74.980003 87.556122
48.961975 72.438995 87.582245
48.948013 69.860352 90.253281
48.838928 67.288406 90.274666
48.751556 64.657883 93.002632
48.727623 62.059097 93.004631
38.251358 56.695702 174.18689
32.415855 56.244156 174.35364
26.701153 55.806931 174.3103
48.496902 59.36647 95.813782
44.117836 54.221531 174.02168
38.209549 53.697762 174.37015
32.357418 53.183678 174.54245
26.631641 52.686447 174.50052
20.979763 52.20047 174.28183
15.342257 51.719528 173.92471
48.610012 56.748405 95.778297
49.319496 51.784866 174.15744
44.139977 51.279869 174.16905
38.166424 50.686073 174.55496
32.298706 50.108971 174.7321
26.573717 49.552635 174.68451
20.950945 49.012177 174.44331
15.398525 48.483757 174.03241
48.229965 54.070038 95.897484
50.229401 49.000729 173.72728
44.191525 48.33017 174.29823
38.175758 47.667465 174.7076
32.242008 47.020222 174.92128
26.55858 46.40984 174.8436
20.995438 45.819305 174.56259
15.470545 45.237968 174.13161
9.9720459 44.66423 173.5602
48.445194 51.349274 98.610115
54.754295 46.621864 174.19107
50.388 46.120106 173.78949
44.320786 45.380329 174.37814
38.186234 44.636543 174.86017
32.186195 43.917267 175.11061
26.542179 43.253372 175.00404
21.062506 42.617386 174.66922
15.658009 41.996578 174.16534
10.159128 41.367195 173.59149
17.054604 43.111679 148.5704
16.4639 43.159317 145.4032
15.874752 43.206825 142.24445
15.340992 43.261452 139.07051
14.890173 43.326813 135.87173
14.439766 43.391769 132.68521
13.992247 43.456657 129.50983
13.545115 43.521141 126.34651
13.100853 43.585556 123.19424
12.723181 43.658295 120.02992
12.547894 43.757107 116.80833
12.372339 43.855202 113.60519
48.267006 48.656723 98.673523
12.026649 44.050083 107.25159
11.855253 44.146713 104.10126
11.683546 44.242645 100.96872
11.514034 44.338211 97.853119
11.345476 44.43325 94.754684
11.177816 44.527763 91.673248
31.688484 47.360741 80.734001
34.824821 47.862499 77.213699
37.86375 48.348644 73.80365
15.578474 45.649277 75.484138
14.640026 45.641365 72.70507
56.667461 44.051079 173.07777
50.67181 43.250637 173.76993
44.449402 42.421101 174.45898
38.196758 41.593109 175.01337
32.130142 40.799873 175.3008
26.525715 40.083282 175.16519
21.170988 39.410072 174.75212
15.852457 38.747326 174.19553
10.489119 38.082664 173.54341
4.9659061 37.398754 172.85794
28.588009 41.373154 149.81874
29.697475 41.673241 145.92975
31.518322 42.076538 141.75464
33.359295 42.479919 137.64166
35.287266 42.893219 133.56067
34.906036 42.965183 130.56418
33.553513 42.894802 127.99338
32.182587 42.822239 125.41787
30.840187 42.754326 122.81831
28.896824 42.600052 120.43973
26.405407 42.36795 118.23985
23.880737 42.13269 116.01206
21.324432 41.894539 113.75494
48.158092 45.845825 101.52812
33.103653 43.821796 103.61743
25.432589 42.856499 103.04721
16.728947 41.752182 102.62499
16.259415 41.812679 99.630653
33.757198 44.389435 91.653084
36.882092 44.942356 87.933197
39.908249 45.477806 84.330811
42.964973 46.013889 80.81015
45.223228 46.436043 77.563248
45.976429 46.648079 74.717278
46.720779 46.857491 71.908096
12.186668 42.238899 76.096252
11.233568 42.230042 73.27639
57.03215 41.255692 173.00317
50.953125 40.375584 173.75232
44.670746 39.468037 174.4807
38.237087 38.542053 175.1485
36.904591 38.471077 172.52332
36.183464 38.501892 169.519
33.382919 38.189335 167.73907
30.09594 37.799107 166.18478
10.825054 34.79348 173.49223
5.3835964 34.06694 172.76132
43.994606 40.50909 148.51068
44.376331 40.710495 145.12064
44.382816 40.849869 141.95319
44.389248 40.988224 138.80879
44.395645 41.125576 135.68723
44.699242 41.309402 132.45018
44.618774 41.430805 129.41653
44.315002 41.515934 126.50062
44.012623 41.600677 123.59791
43.668869 41.67831 120.72598
42.319862 41.597694 118.2687
40.653542 41.46804 115.92142
38.976608 41.337639 113.55734
43.522427 42.174145 108.91682
43.255554 42.26033 106.09444
48.212852 43.151279 101.52056
36.253242 41.437149 102.59737
39.533882 42.068104 98.624763
42.705681 42.678127 94.783951
43.963524 42.992958 91.592926
44.744438 43.233368 88.583466
45.514946 43.470581 85.61409
46.274345 43.704514 82.684258
47.024673 43.935509 79.792679
47.765202 44.163486 76.938873
48.495232 44.388374 74.122299
41.081558 43.402397 73.037613
8.8337975 38.747299 76.699005
8.3618736 38.810593 73.746399
22.125315 41.94186 46.004158
22.239262 42.07653 43.286938
22.353453 42.210373 40.589397
22.465752 42.34309 37.911526
22.678921 42.489235 35.248207
41.594955 45.271118 31.927444
21.270821 42.52095 30.032829
21.30127 42.639557 27.416817
21.002514 42.711445 24.819794
21.256342 43.738338 2.1388931
57.487183 38.473858 172.86795
51.377426 37.521149 173.64085
44.958691 36.519924 174.4599
37.378304 35.3176 175.85019
39.076935 35.784462 171.34111
38.359104 35.817108 168.35826
37.643448 35.849895 165.37927
36.814377 35.862373 162.47046
36.937939 36.042686 159.03104
47.172718 37.997513 150.10649
53.794365 39.305775 143.40695
55.227951 39.699959 139.59789
55.293221 39.853577 136.54013
55.35799 40.005997 133.50627
55.422249 40.157227 130.49603
44.935749 38.494312 132.41206
45.797516 38.786427 128.94957
46.682098 39.080353 125.52139
46.618809 39.21104 122.54121
46.313705 39.299839 119.68058
45.745964 39.343674 116.93838
45.159962 39.384129 114.20982
44.558548 39.421715 111.49309
46.690125 39.91555 107.791
46.572769 40.031601 104.94965
47.865761 40.380791 101.64883
44.286171 39.922104 99.986511
45.036068 40.179798 96.899155
45.813046 40.440166 93.84127
46.578701 40.696899 90.824577
47.335121 40.950375 87.847679
48.080631 41.200356 84.910316
48.817284 41.447205 82.011215
49.544357 41.690845 79.149887
50.261105 41.931183 76.325806
50.969528 42.168571 73.537842
43.737461 41.135658 72.437233
43.143303 41.166687 69.883072
42.550117 41.197662 67.333099
41.957924 41.228592 64.787323
41.366676 41.259468 62.245705
40.805771 41.294907 59.703808
40.838791 41.423141 57.082832
40.879086 41.551678 54.478703
40.92004 41.679482 51.892284
41.247772 41.850933 49.292252
41.414158 41.99633 46.73167
41.553417 42.136612 44.193371
41.690689 42.275688 41.674435
42.169376 42.466148 39.151623
42.699203 42.6632 36.651794
43.223335 42.858128 34.178902
43.625015 43.033249 31.736694
42.340229 42.95229 29.361198
42.349747 43.06691 26.954834
42.359222 43.180798 24.563789
42.368614 43.293961 22.18792
42.378857 43.406544 19.82711
42.388126 43.518284 17.481163
42.397354 43.629318 15.149963
42.406517 43.739662 12.833374
42.213913 43.819572 10.520424
42.205223 43.926025 8.2295685
42.718925 44.108379 5.990715
43.206604 44.28582 3.7734222
43.502495 44.434242 1.56147
57.94323 35.691689 172.73206
51.843674 34.673229 173.50183
45.449257 33.605534 174.30881
39.963715 32.720711 174.38345
40.73764 33.042053 170.47185
39.949429 33.062756 167.54761
39.004242 33.053444 164.71867
38.059746 33.044331 161.88795
38.322281 33.263176 158.38051
51.058224 35.826736 148.09775
56.242596 36.9562 142.20619
56.3932 37.137444 139.08829
56.453705 37.300606 136.04208
56.513756 37.462502 133.01962
56.573326 37.623135 130.02063
56.632454 37.782528 127.04483
56.691113 37.940697 124.09193
56.749329 38.097649 121.16171
56.807091 38.253399 118.25389
56.864414 38.407963 115.36823
56.921303 38.561356 112.50443
56.977753 38.713589 109.66228
57.033798 38.864677 106.84153
48.434422 37.466389 107.18091
48.361519 37.59779 104.33986
46.807678 37.465202 102.01749
47.477615 37.7272 98.952438
48.140053 37.986061 95.925697
48.794197 38.241684 92.936813
49.439301 38.493969 89.985352
50.077347 38.743298 87.070084
50.707542 38.989563 84.190628
51.329163 39.232666 81.346558
52.018471 39.485825 78.518723
52.713917 39.738335 75.723343
53.40052 39.987629 72.963608
46.343693 38.910381 71.848083
45.776821 38.947029 69.313087
45.234047 38.987526 66.778481
44.69239 39.027939 64.249008
44.151814 39.068272 61.724648
43.742863 39.130489 59.185547
43.772984 39.265938 56.592613
43.745003 39.390793 54.024826
43.226871 39.433155 51.531727
43.29425 39.572487 48.980492
43.394943 39.716434 46.44392
43.524914 39.864281 43.923244
43.846489 40.042694 41.406765
44.331192 40.246704 38.90218
44.845543 40.454258 36.42186
45.239487 40.640869 33.973312
45.612045 40.822823 31.54908
44.551712 40.771667 29.183647
44.55415 40.892334 26.795952
44.557457 41.012379 24.423347
44.549355 41.129841 22.065643
44.305386 41.208866 19.718941
44.063309 41.287697 17.38208
43.822258 41.366199 15.055016
43.581306 41.444237 12.737572
43.342262 41.522087 10.42984
43.798149 41.708832 8.1761322
44.008759 41.855949 5.927124
44.130295 41.988228 3.6885834
44.442902 42.149498 1.4838028
58.56144 32.942654 172.48686
52.456715 31.855116 173.26602
46.057785 30.715225 174.08163
40.946449 29.848122 173.92493
40.545273 29.950317 170.74338
40.560299 30.136501 167.32547
40.023952 30.209436 164.25763
39.152252 30.214043 161.3924
38.5298 30.26881 158.38818
54.351295 33.622383 146.40933
57.494892 34.417034 141.64047
57.551144 34.590977 138.58188
57.606964 34.763565 135.54715
57.662331 34.934807 132.53601
57.717281 35.104729 129.54816
57.771816 35.273338 126.58336
57.825912 35.440651 123.6413
57.880501 35.606861 120.72139
57.933769 35.771626 117.82412
57.986656 35.935146 114.94883
58.039124 36.097424 112.09532
58.091209 36.258484 109.26327
58.142906 36.418335 106.4525
58.194199 36.576984 103.66277
58.245113 36.734455 100.89381
58.29565 36.890755 98.145393
58.345825 37.045902 95.417313
58.395622 37.199905 92.709335
58.445045 37.352776 90.02124
58.499207 37.505482 87.351326
51.863678 36.411488 86.558212
52.299606 36.637207 83.746429
52.730034 36.860374 80.96463
53.155949 37.081196 78.212074
53.577393 37.299706 75.488342
53.995331 37.516098 72.792755
49.059296 36.754177 71.237045
48.518044 36.796528 68.722908
47.978767 36.838951 66.213669
47.439671 36.881126 63.709648
46.901653 36.923214 61.210655
46.626381 37.012173 58.676937
46.33601 37.097847 56.156254
45.818161 37.142406 53.67556
45.301422 37.186874 51.200165
45.268085 37.316666 48.677818
45.349239 37.465824 46.159985
45.597237 37.643375 43.645592
45.993416 37.845772 41.141239
46.461639 38.059464 38.656364
46.847878 38.257496 36.201508
47.212097 38.450439 33.771217
47.121857 38.563461 31.379608
46.06588 38.509068 29.025078
45.889999 38.606449 26.651482
45.7141 38.703217 24.289307
45.539917 38.799667 21.938484
45.365688 38.895508 19.5989
45.190567 38.990593 17.27047
44.947006 39.073498 14.950615
44.705338 39.156204 12.640434
44.694321 39.277225 10.352478
44.814011 39.419437 8.0868835
44.929413 39.560051 5.8372574
45.019279 39.695549 3.6015625
45.327347 39.866497 1.4016571
59.201382 30.202116 172.22672
53.119408 29.05118 172.99718
46.815353 27.860373 173.758
41.242821 26.838078 173.89915
40.509537 26.874714 170.91919
40.274273 27.018854 167.64383
40.384315 27.236368 164.18408
39.71352 27.284534 161.20139
38.38076 27.190681 158.59602
56.634186 31.27356 145.27048
58.651207 31.877289 141.12517
58.702782 32.0606 138.07816
58.753941 32.242485 135.05484
58.804699 32.422962 132.05493
58.855076 32.602047 129.07817
58.905048 32.779755 126.12429
58.954662 32.956104 123.19302
59.003876 33.131104 120.28412
59.058014 33.305866 117.39507
59.121346 33.481274 114.52404
59.183327 33.655159 111.67538
59.245697 33.827892 108.84814
59.307602 33.999313 106.04243
59.369034 34.16943 103.25803
59.429993 34.338261 100.49464
59.489655 34.505653 97.752357
59.549706 34.671955 95.030365
59.609314 34.837021 92.328705
59.668484 35.000854 89.647163
51.213223 33.473175 89.450317
51.812721 33.747471 86.556503
51.210861 33.783012 84.014778
55.890549 34.856148 80.136063
54.645359 34.761696 77.820381
52.51432 34.494991 75.697815
52.940559 34.727512 72.983383
48.806732 34.074455 71.243271
48.716805 34.207096 68.632767
48.627399 34.338955 66.037704
48.538528 34.470036 63.457912
48.472546 34.604626 60.889641
48.595974 34.774437 58.308258
48.379139 34.878471 55.794296
47.862698 34.925079 53.331116
47.347366 34.971588 50.873161
47.216324 35.090103 48.379066
47.338722 35.255379 45.873833
47.726318 35.469162 43.364426
47.711609 35.606602 40.909771
47.272026 35.664234 38.498432
46.798462 35.715206 36.095459
46.326908 35.766224 33.698105
46.078926 35.858047 31.29879
44.713173 35.744308 28.936577
44.538368 35.848991 26.545227
44.36441 35.953171 24.165459
44.192169 36.057003 21.797203
44.058594 36.167187 19.441017
44.213303 36.328716 17.104462
44.365959 36.488869 14.785515
44.517475 36.64782 12.483948
44.657475 36.803726 10.19902
44.748264 36.949898 7.9277878
44.839237 37.0952 5.6723175
45.209507 37.289093 3.4561234
45.867363 37.532597 1.2877884
59.901081 27.479843 171.92593
53.932365 26.286798 172.62872
48.100502 25.134562 173.09286
46.466755 24.960741 170.75874
44.822407 24.785793 168.40945
43.166267 24.609461 166.04553
41.500374 24.43222 163.66548
39.822472 24.253571 161.27048
38.105042 24.067289 158.87564
35.876831 23.767033 156.73747
58.815228 29.131781 141.13855
