# .PCD v0.7 - Point Cloud Data file format
VERSION 0.7
FIELDS x y z
SIZE 4 4 4
TYPE F F F
COUNT 1 1 1
WIDTH 1558
HEIGHT 1
VIEWPOINT 0 0 0 1 0 0 0
POINTS 1558
DATA ascii
14.646384 -1.4878993 72.210716
16.75758 -2.0897875 72.031555
17.91539 -2.3243842 71.521744
18.522747 -2.3437285 70.807281
18.84375 -2.2487683 69.976334
19.032738 -2.099185 69.083359
19.147581 -1.9172616 68.148407
19.606361 -1.8733382 67.356438
18.911022 -1.3529458 66.026947
10.959728 2.1895485 61.203728
13.461109 1.4109814 61.273506
14.582107 1.2026596 60.698807
15.830197 0.93706012 60.204025
16.401684 0.95718622 59.366562
16.974163 0.97720456 58.528267
17.383495 1.0685589 57.596821
17.657249 1.2208734 56.580738
17.890697 1.3934913 55.530087
18.10582 1.577105 54.456123
18.323261 1.762701 53.370567
18.092419 2.1546345 51.984566
17.978102 2.4998627 50.646797
17.888977 2.8393135 49.300835
8.9355679 7.3063593 41.809185
15.127084 -2.6581078 72.299355
16.927017 -3.1248202 72.013428
17.921093 -3.2905078 71.445473
18.478731 -3.2907114 70.713852
18.733969 -3.1737404 69.857643
19.083916 -3.0920153 69.033981
19.120434 -2.8858232 68.067734
19.318237 -2.7404423 67.160446
19.0228 -2.3959818 66.014488
19.191147 -2.2328238 65.066727
14.134279 0.050529718 61.540653
15.401454 -0.21370602 61.052834
16.059681 -0.23141217 60.267029
16.627989 -0.21209645 59.434464
17.197273 -0.19288397 58.601082
17.679609 -0.13672614 57.717377
17.952824 0.0091667175 56.708744
18.228798 0.15623713 55.691242
18.470211 0.32062554 54.642021
18.687908 0.49803805 53.565941
18.554802 0.83235097 52.251938
18.33066 1.2125373 50.853222
18.245594 1.5370655 49.519684
18.159195 1.8677092 48.160664
18.043711 2.2172246 46.755802
8.9315662 6.6918449 38.79805
8.6767387 7.1538792 37.075134
14.756416 -3.5011868 72.079529
16.541286 -3.9468083 71.787331
17.498997 -4.0932107 71.203552
18.033932 -4.0843887 70.460228
18.324146 -3.9836974 69.615234
19.083487 -4.0586858 68.963127
18.78517 -3.7324128 67.852249
18.793034 -3.51862 66.857239
18.904095 -3.3414688 65.895424
18.862827 -3.1023636 64.848366
14.900397 -1.3223138 61.854958
15.805331 -1.4378161 61.198196
16.327328 -1.4026501 60.350529
16.851686 -1.3678823 59.501587
17.417801 -1.3494549 58.67305
17.971729 -1.3257675 57.836304
18.244408 -1.1861429 56.835026
18.519791 -1.0453906 55.825005
18.797352 -0.90325952 54.805767
19.046894 -0.74700451 53.758286
19.008852 -0.46610379 52.514488
18.776817 -0.09750104 51.121582
18.596703 0.25488806 49.735153
18.514332 0.5707078 48.388763
18.423531 0.89562416 47.011543
18.324974 1.2295747 45.602905
18.131447 1.611743 44.096939
17.878189 2.0275202 42.514641
17.61842 2.4536152 40.893375
13.35284 4.7241139 36.039284
13.015214 5.2181883 34.207195
16.52704 3.9240532 35.554501
17.082722 3.998971 34.479492
17.640335 4.074357 33.399792
14.006307 -4.214479 71.720825
15.782735 -4.6408868 71.420288
16.872879 -4.8283052 70.881821
17.46957 -4.8409195 70.158142
17.725163 -4.7301202 69.294121
18.018127 -4.6313396 68.438309
18.178402 -4.4823093 67.517227
18.24445 -4.296155 66.542931
18.322041 -4.1115193 65.560699
15.742068 -2.9247694 63.291649
15.288814 -2.5257545 61.984638
16.036407 -2.5791025 61.256935
16.699995 -2.6009543 60.489418
17.144356 -2.5381422 59.606224
17.59029 -2.4749572 58.719185
18.123783 -2.4452624 57.876801
18.442219 -2.3297119 56.907578
18.743942 -2.2056143 55.919559
19.047844 -2.0803852 54.923283
19.354233 -1.9541233 53.918812
19.45479 -1.7413692 52.772354
19.229893 -1.3905034 51.394939
18.999849 -1.0316179 49.986046
18.863993 -0.70627499 48.613342
18.775743 -0.39557791 47.247936
18.681732 -0.077079296 45.852905
18.585543 0.2478776 44.429939
18.470901 0.5865469 42.965836
18.221487 0.99035335 41.36821
17.965643 1.4041944 39.731197
17.703785 1.8281484 38.05386
17.148823 2.3919606 36.094742
17.543545 2.5338993 34.89949
18.096888 2.605608 33.830719
18.660234 2.674017 32.764538
19.204311 2.7527251 31.674566
19.750805 2.8317847 30.579742
20.29974 2.9111962 29.480034
20.851124 2.9909635 28.375408
21.404984 3.0710859 27.265842
21.961325 3.1515675 26.151306
22.520168 3.2324133 25.031744
23.081532 3.3136215 23.907145
23.645424 3.3952003 22.777452
24.204851 3.4807377 21.63475
13.991211 -4.9945936 70.661575
15.722966 -5.3929753 70.354858
16.594086 -5.4981489 69.730141
16.737877 -5.3503704 68.811172
17.112127 -5.2816544 67.980057
17.255737 -5.1300421 67.042389
17.378479 -4.9687152 66.084137
16.455153 -4.4280348 64.62587
14.556844 -3.5252411 62.65937
14.79147 -3.388993 61.678043
15.945498 -3.5895588 61.152962
16.40498 -3.5352309 60.280975
16.929392 -3.5043621 59.43959
17.530495 -3.5019426 58.63802
18.101013 -3.4878571 57.818985
18.399105 -3.369139 56.840893
18.699631 -3.2494571 55.854839
19.002609 -3.1287966 54.860729
19.298803 -3.0035059 53.852661
19.435137 -2.81288 52.731804
19.386501 -2.5452731 51.47361
19.33699 -2.2728453 50.192749
19.223909 -1.9700315 48.845276
19.122829 -1.6669881 47.480904
19.032936 -1.3633723 46.09901
18.94096 -1.0536466 44.689667
18.847153 -0.73775518 43.252266
18.751774 -0.41564703 41.786217
18.565496 -0.048971891 40.219398
18.313927 0.3524189 38.566841
18.055782 0.76391649 36.872982
17.995871 1.0958629 35.311741
18.55401 1.1600266 34.261566
19.112608 1.2251763 33.205914
19.652565 1.2999601 32.127151
20.19491 1.3750734 31.043629
20.739639 1.45052 29.955324
21.286781 1.5263 28.862207
21.831829 1.6045384 27.759693
22.367132 1.6889262 26.639599
22.905075 1.7737269 25.513996
23.445665 1.8589482 24.382843
23.988937 1.9445887 23.246094
24.535202 2.0305014 22.104063
23.273624 3.0186467 18.879473
13.351458 -5.5741978 69.348167
13.709783 -5.498672 68.490417
14.951312 -5.7201176 67.994362
15.356922 -5.6606293 67.156693
15.709626 -5.582149 66.291183
12.691562 -4.1276245 62.801743
13.991061 -4.3673859 62.323402
14.911242 -4.4769516 61.676128
15.742674 -4.5566416 60.992329
16.341753 -4.5543184 60.193462
16.94092 -4.5519929 59.39447
17.540186 -4.5496664 58.595337
18.058714 -4.5177011 57.750374
18.355915 -4.4034309 56.774364
18.655533 -4.2882347 55.790428
18.947762 -4.1684074 54.792473
19.227701 -4.0419831 53.776848
19.338573 -3.8489599 52.642014
19.289171 -3.5910721 51.385307
19.238873 -3.3285444 50.106003
19.134628 -3.0405023 48.766808
19.124027 -2.7845373 47.468983
19.189453 -2.5544584 46.203949
19.255581 -2.3207006 44.91914
19.201214 -2.0340972 43.521797
19.10981 -1.7273488 42.069866
19.016888 -1.4145521 40.588936
18.910213 -1.0904617 39.068195
18.662621 -0.7014308 37.399765
18.048508 -0.15020967 35.381622
18.833769 -0.18660355 34.536594
19.554619 -0.19590306 33.637325
20.073624 -0.11755085 32.554024
20.595123 -0.038822412 31.465506
21.119148 0.040286303 30.371729
21.646019 0.1196382 29.272964
22.175131 0.1995163 28.16856
22.706814 0.27978277 27.058784
23.241096 0.36044025 25.943594
23.778305 0.44134569 24.823288
24.317829 0.52279544 23.697157
24.860001 0.60464454 22.565491
25.404846 0.68689656 21.428251
23.766319 1.8295021 17.725124
24.020046 2.0689926 16.164505
24.263769 2.3185177 14.565598
24.439724 2.6073179 12.854439
28.920448 3.4793801 2.4993973
30.307392 3.1419749 2.4065857
31.555286 2.8744135 2.1385078
13.51908 -5.2498384 62.03207
14.452017 -5.3591056 61.388062
15.46992 -5.4991288 60.796127
16.355034 -5.5954752 60.146179
16.952374 -5.5932426 59.349617
17.549822 -5.5910101 58.552917
18.016621 -5.5426006 57.682083
18.313217 -5.4328394 56.708321
18.601261 -5.3182583 55.720142
18.877869 -5.1977 54.715176
19.156906 -5.0760775 53.701355
19.242367 -4.8813114 52.552544
19.192186 -4.633069 51.297318
19.119476 -4.3722882 50.004959
18.928972 -4.062757 48.607887
18.900537 -3.8095906 47.29789
18.963924 -3.5873075 46.031631
19.028603 -3.361706 44.746021
19.093983 -3.1324735 43.440163
19.1607 -2.8997655 42.114052
19.228149 -2.6632493 40.766708
19.283079 -2.4175193 39.38678
19.190464 -2.1077957 37.860096
19.012037 -1.757501 36.230213
18.342381 -1.1988066 34.136524
17.793673 -0.68001306 32.096298
18.359003 -0.61820734 31.02474
18.926516 -0.55616403 29.949051
19.496216 -0.49388027 28.869205
20.068125 -0.43135548 27.785179
20.642252 -0.36858654 26.696939
21.218609 -0.30557632 25.604485
21.797207 -0.24231672 24.507759
22.383276 -0.18114805 23.412348
23.011665 -0.13790035 22.356718
23.641407 -0.094391823 21.297924
23.065592 0.50674677 18.855072
23.358282 0.71509814 17.361744
23.737938 0.88680887 15.949181
24.116884 1.0624909 14.516407
24.4615 1.2584589 13.020773
24.70981 1.5055413 11.37962
24.904804 1.7842598 9.6401348
25.058043 2.0899048 7.812191
25.083387 2.4667182 5.7735023
25.793295 2.5037708 4.6437569
26.619671 2.4817362 3.6754837
27.575798 2.3916574 2.8988914
28.788841 2.1641874 2.5160103
30.158859 1.8476939 2.4007034
31.461679 1.5598569 2.2211609
13.087833 -6.1517153 61.76001
14.260757 -6.3348303 61.232525
15.137778 -6.4232254 60.569599
16.055954 -6.5266371 59.935703
16.96405 -6.6282668 59.305195
17.559677 -6.6261249 58.510914
17.975014 -6.5626898 57.614292
18.259216 -6.4533472 56.635899
18.532537 -6.3385129 55.641407
18.807974 -6.2225742 54.638027
19.086124 -6.1057158 53.625992
19.146494 -5.9099503 52.463394
19.095566 -5.6712937 51.209656
18.916126 -5.3824968 49.847279
18.723793 -5.0842094 48.449322
18.676849 -4.8340449 47.126671
18.73881 -4.6197801 45.859612
18.801428 -4.4020929 44.572758
18.865334 -4.1811333 43.266102
18.929916 -3.9565873 41.938709
18.995848 -3.7286108 40.590565
19.062511 -3.4968774 39.220665
19.130241 -3.2614188 37.828754
19.177193 -3.0135734 36.395592
17.866528 -2.2243824 33.750217
15.917964 -1.1661439 30.453993
16.491341 -1.1040114 29.356976
17.066973 -1.0416322 28.25563
17.644878 -0.97900963 27.149952
18.255043 -0.92855728 26.069244
18.885506 -0.88562346 25.003475
19.517998 -0.84271455 23.935179
20.152199 -0.79968894 22.863991
20.788122 -0.75655365 21.789934
21.425413 -0.71315062 20.712601
22.064768 -0.66977787 19.632721
23.031763 0.24113488 13.321804
23.56036 0.34823418 12.034782
23.929039 0.53244472 10.531124
24.301163 0.71903658 9.0097656
24.635902 0.92760301 7.4159164
24.970432 1.1409087 5.7961197
25.732729 1.1499174 4.7448959
26.532215 1.140744 3.7454376
27.485378 1.0545135 2.9705124
28.658184 0.85516286 2.5330238
29.92309 0.60397816 2.2613831
30.689621 0.60492945 1.2491837
12.512568 -7.013792 61.418053
14.10382 -7.3203812 61.094086
14.980589 -7.4054079 60.432205
15.851219 -7.4897733 59.774582
16.716375 -7.5736742 59.121468
17.569199 -7.6548762 58.469009
17.92153 -7.5739555 57.539974
18.191643 -7.4647121 56.555767
18.463814 -7.3544216 55.562828
18.738661 -7.2432642 54.561378
19.015915 -7.1311297 53.551136
19.050972 -6.9349022 52.374565
18.903275 -6.6728783 51.058998
18.712961 -6.391818 49.689739
18.518505 -6.1046424 48.290691
18.453566 -5.8581238 46.955742
18.513496 -5.6516485 45.687458
18.574671 -5.4420962 44.399815
18.636482 -5.2291689 43.091892
18.699261 -5.0129013 41.763447
18.730812 -4.781405 40.388294
18.746338 -4.5398989 38.976521
18.762136 -4.2941914 37.540188
17.787432 -3.6713212 35.232063
17.790083 -3.4082925 33.713207
14.021064 -1.6951122 28.794203
14.653818 -1.6526688 27.718477
15.288683 -1.6102568 26.64016
15.925282 -1.5677284 25.558893
16.563248 -1.5249391 24.474327
17.203323 -1.4821765 23.387146
17.845161 -1.4392959 22.29697
18.488747 -1.3962988 21.203823
19.133751 -1.3530368 20.107288
23.161608 0.6087904 3.5136375
23.961922 0.60747313 2.4699135
11.674416 -7.8059058 60.948338
13.947159 -8.3041925 60.955894
14.823378 -8.3857718 60.294907
15.694066 -8.4668999 59.638466
16.558992 -8.5474911 58.986366
17.253889 -8.5764809 58.247681
17.780354 -8.5531673 57.416061
18.084961 -8.4594564 56.453026
18.391636 -8.3649244 55.482342
18.669632 -8.2596893 54.485046
18.945721 -8.1521511 53.476406
18.890993 -7.9350686 52.244343
18.702662 -7.6705542 50.90287
18.510275 -7.4003496 49.532539
18.313398 -7.1241665 48.132198
18.230082 -6.8816113 46.784679
18.28829 -6.6830297 45.515381
18.305223 -6.4669356 44.195114
18.316792 -6.2452865 42.84853
18.328562 -6.0198746 41.479076
18.34054 -5.7906027 40.086166
18.352722 -5.5573692 38.669189
18.365437 -5.320188 37.227798
17.654221 -4.8174992 35.14254
17.703951 -4.5828252 33.667587
17.479301 -4.2430458 31.921719
10.358341 -8.4762287 60.24604
13.558036 -9.2190428 60.702015
14.666741 -9.3645077 60.157997
15.537181 -9.4423122 59.502586
16.220612 -9.4660492 58.753704
16.875866 -9.4817619 57.991501
17.559954 -9.5063705 57.247219
17.863676 -9.4163475 56.283596
18.169476 -9.3255405 55.312325
18.477943 -9.2341127 54.333649
18.729103 -9.123476 53.309769
17.056974 -8.410738 51.035805
16.850266 -8.1475344 49.656456
16.759731 -7.9168754 48.328613
16.904963 -7.7578201 47.140194
17.291698 -7.6740055 46.106457
17.680702 -7.5895219 45.065548
17.923288 -7.4555826 43.906773
17.931662 -7.2418761 42.555344
17.940495 -7.0246406 41.181175
17.949162 -6.8035741 39.783192
17.957977 -6.5786786 38.361
17.966949 -6.3498588 36.913986
17.166279 -5.8371754 34.750057
17.212055 -5.6103902 33.26746
16.870756 -5.2432947 31.413265
16.295443 -4.7863736 29.303059
15.726349 -4.323225 27.145622
12.33692 -9.9080849 60.032856
14.510377 -10.341523 60.021324
15.182188 -10.360381 59.262543
15.724557 -10.342949 58.435715
16.521854 -10.397838 57.748463
17.339573 -10.459435 57.0784
17.642433 -10.373105 56.114189
17.891769 -10.269823 55.10907
18.130943 -10.161919 54.08699
18.372126 -10.052891 53.05489
18.610697 -9.94133 52.009602
18.614037 -9.7571821 50.797115
14.601433 -8.3517828 46.848053
14.987241 -8.2684879 45.794792
15.375685 -8.1846237 44.734329
15.766793 -8.1001825 43.666592
16.160599 -8.0151615 42.591496
16.557121 -7.9295497 41.508968
16.956396 -7.8433475 40.418941
17.358446 -7.7565436 39.321323
17.561468 -7.6036263 38.051422
16.707275 -7.1018562 35.881653
16.675144 -6.8627162 34.354984
16.677982 -6.6309371 32.830669
16.230703 -6.2435808 30.876978
15.65837 -5.8066993 28.762653
15.103075 -5.3675961 26.611372
14.478876 -4.8964958 24.340683
13.802101 -4.3981977 21.960632
14.138302 -11.25943 59.774067
14.681289 -11.242653 58.94545
15.224814 -11.225764 58.115379
16.166695 -11.316905 57.504635
17.008833 -11.382128 56.846748
17.30093 -11.296522 55.874557
17.536541 -11.193862 54.859337
17.774105 -11.090132 53.834198
18.014267 -10.985485 52.799339
18.25675 -10.879823 51.754456
18.384024 -10.739366 50.621719
18.385548 -10.560211 49.388157
12.98624 -8.8015156 44.390976
13.411089 -8.727953 43.327187
13.856982 -8.6594048 42.270233
14.30542 -8.5904675 41.207256
14.756423 -8.5211315 40.138176
15.210011 -8.451396 39.062954
15.666218 -8.3812609 37.981537
15.433482 -8.0965271 36.32991
15.915099 -8.0299788 35.23978
16.208466 -7.9029121 33.980911
16.022961 -7.6212792 32.288563
15.584187 -7.2532883 30.335258
15.015384 -6.8364873 28.217234
14.446602 -6.4120312 26.046547
13.859283 -5.973587 23.804054
13.175907 -5.4949517 21.411472
12.460526 -4.9965143 18.924793
9.7486525 -11.163715 57.462265
14.176633 -12.130889 58.626022
14.721935 -12.114721 57.793015
15.765542 -12.227364 57.235096
16.179996 -12.177541 56.331062
16.591732 -12.126229 55.419868
16.971037 -12.065522 54.483459
17.352566 -12.004456 53.541534
17.655209 -11.921179 52.542938
17.896358 -11.819881 51.495064
18.139565 -11.717516 50.436768
18.153389 -11.550222 49.211193
17.337276 -11.149408 47.390434
17.361931 -10.9777 46.118767
17.462204 -10.824514 44.881439
17.960436 -10.782202 43.92157
18.491047 -10.748482 42.981182
19.013807 -10.711911 42.030525
19.543779 -10.676818 41.081062
20.061209 -10.637418 40.116993
20.467365 -10.564219 39.055149
14.501284 -8.5768728 32.548916
14.636493 -8.4019394 31.108738
14.780502 -8.2265453 29.65369
14.366422 -7.8758779 27.666733
13.784272 -7.466485 25.476719
13.183054 -7.0435362 23.213913
12.544891 -6.6009798 20.858131
25.665663 -10.552615 32.142818
26.470427 -10.601102 31.435608
27.333725 -10.669607 30.795994
27.97196 -10.665333 29.926743
12.341967 -12.703507 57.603706
14.239732 -13.015697 57.481518
14.919681 -13.032774 56.718002
15.335287 -12.984527 55.805664
15.752932 -12.936043 54.888855
16.166321 -12.885734 53.963776
16.548286 -12.826654 53.013367
16.932219 -12.767145 52.057121
17.318741 -12.707357 51.095352
17.707575 -12.647209 50.127815
17.002621 -12.299329 48.412079
17.196566 -12.18336 47.276642
17.376099 -12.061641 46.116482
17.62566 -11.956719 44.991879
18.261297 -11.954647 44.141159
18.875219 -11.946606 43.27364
19.455574 -11.929179 42.378933
20.032713 -11.910558 41.479382
20.61087 -11.891902 40.578232
21.189772 -11.873129 39.67522
21.769131 -11.854158 38.770088
22.367298 -11.840261 37.878796
22.968569 -11.827017 36.98838
23.556847 -11.809725 36.084293
24.014355 -11.753455 35.055988
24.480303 -11.698664 34.027828
24.944439 -11.642309 32.990173
25.641199 -11.655615 32.175941
28.060165 -11.595171 28.53933
14.060567 -13.850791 56.19281
14.477324 -13.804178 55.272018
14.896134 -13.757335 54.346687
15.317024 -13.710262 53.416775
15.731758 -13.66097 52.477188
16.116405 -13.603599 51.512405
16.503059 -13.545807 50.541626
16.892349 -13.48774 49.565178
15.891068 -13.083026 47.639065
16.340069 -13.035215 46.666325
16.723618 -12.970081 45.640816
17.232225 -12.935733 44.697594
18.00465 -12.968585 43.946041
18.725042 -12.98851 43.159309
19.312416 -12.974023 42.271687
19.886276 -12.955727 41.371311
20.461493 -12.937473 40.469505
21.03747 -12.919107 39.565796
21.614811 -12.900789 38.660667
22.218565 -12.889351 37.775955
22.817234 -12.876308 36.885078
23.395454 -12.857353 35.973694
23.881165 -12.812123 34.973404
24.365105 -12.765562 33.964787
24.864616 -12.722586 32.964397
25.563444 -12.736232 32.155704
26.397921 -12.789594 31.486904
27.008366 -12.778188 30.593662
1.6800213 -5.0768986 2.184536
3.0110912 -5.2060461 1.4703789
4.3248205 -5.3324842 0.75730133
14.447817 -14.546282 52.857239
14.871988 -14.500687 51.913872
15.288054 -14.452514 50.959335
15.675411 -14.396935 49.979774
17.894468 -13.861152 42.527027
18.406082 -13.827515 41.570076
-2.0849247 -6.5463943 6.821022
-0.76623154 -6.6609726 6.0591698
0.031682014 -6.6345205 4.7869797
0.68419361 -6.5672092 3.3597412
1.6178446 -6.5773859 2.2194672
2.9351435 -6.6963072 1.4962234
4.2884626 -6.8278437 0.83250427
19.170517 -0.43091679 68.987518
18.280594 -2.8149838 71.424988
18.782701 -2.8837466 70.503899
19.016731 -2.5715117 69.582352
19.224995 -2.2172174 68.652977
19.53178 -1.9998627 67.719376
17.168606 -3.5383115 71.998421
17.908903 -3.933012 71.073166
18.352783 -3.9232821 70.157745
18.697714 -3.7752357 69.240753
19.17617 -3.8127537 68.32428
19.133877 -3.1120782 67.384544
19.170652 -2.5131283 66.433189
19.065525 -1.6997724 65.4561
16.546303 -4.3076639 71.650726
17.388525 -4.8325195 70.727196
17.770649 -4.7410183 69.814293
18.103672 -4.5809174 68.8983
18.412785 -4.3853278 67.977676
18.621996 -4.0478077 67.047226
18.809231 -3.6740899 66.107162
18.983883 -3.2765875 65.156998
18.840794 -2.4202852 64.16452
15.735472 -4.8258319 71.30806
16.590477 -5.3559484 70.385086
16.994354 -5.2941837 69.470406
17.34481 -5.1598682 68.552925
17.665291 -4.9829731 67.631012
17.934753 -4.7338505 66.701935
18.160343 -4.4205952 65.76358
17.950012 -3.4994731 64.778122
17.615845 -2.3909111 63.756668
16.271494 2.2384181 59.387291
17.009205 1.8845496 58.43219
17.267477 2.2269368 57.382801
17.361341 2.8180175 56.285854
17.446598 3.4320669 55.171165
17.532827 4.0552878 54.040432
14.798872 -5.1882815 70.966049
15.657972 -5.710834 70.04184
16.206839 -5.8369694 69.125443
16.443918 -5.5555763 68.20256
16.7789 -5.3994079 67.277405
17.105936 -5.2302308 66.347977
17.290907 -4.8674684 65.403198
16.923388 -3.7505755 64.396767
16.275129 -0.25091743 60.221329
16.997562 -0.58740187 59.282612
17.71418 -0.92117453 58.351448
18.109415 -0.79977655 57.358532
18.330051 -0.42391872 56.320801
18.552456 -0.044279575 55.273548
18.65637 0.51607585 54.183285
18.495096 1.4793625 52.999146
17.928608 3.0655708 51.660229
13.532272 -5.1474013 70.624557
14.269499 -5.4997907 69.693573
14.949682 -5.784595 68.769897
15.350859 -5.7146444 67.843102
15.740448 -5.6286058 66.914001
16.093225 -5.4931493 65.980301
16.112062 -4.9159117 65.015289
15.888091 -4.007513 64.011551
15.505002 -2.8720798 62.966347
15.404481 -2.0995731 61.930153
16.470169 -2.8991957 61.050354
16.932005 -2.8846722 60.089397
17.39308 -2.8688598 59.127914
18.045155 -3.1186357 58.205063
18.442818 -3.0155005 57.232124
18.75407 -2.7883811 56.235565
19.067295 -2.5602908 55.233429
19.38208 -2.3305879 54.225548
19.640766 -2.0155759 53.194595
19.062248 -0.46992278 51.887543
18.466679 1.127656 50.531742
18.1329 2.3632984 49.225536
12.703638 -5.1029987 69.33577
13.308251 -5.279634 68.398384
13.957049 -5.5146255 67.46714
14.493315 -5.610168 66.535324
14.82679 -5.4475398 65.591171
14.660312 -4.6375036 64.598663
14.606355 -3.9612908 63.597527
14.720343 -3.4946003 62.599556
15.528139 -3.9365692 61.685471
16.116989 -4.094173 60.748829
16.797668 -4.3774338 59.832138
17.473288 -4.6583724 58.921913
18.098253 -4.8748116 58.008591
18.403967 -4.6561904 57.028824
18.711615 -4.4366646 56.043652
19.014664 -4.2070937 55.051315
19.303049 -3.9530501 54.048553
19.495604 -3.5586782 53.009857
19.493181 -2.8784237 51.897453
19.490704 -2.1864862 50.765972
18.989656 -0.75642252 49.434326
18.668079 0.43480301 48.1306
18.325581 1.6779089 46.784142
12.518562 -4.7133012 66.106308
12.872797 -3.3692775 63.128975
14.200422 -4.4596744 62.265594
15.129761 -5.0518622 61.373768
16.112442 -5.7227635 60.505898
16.913712 -6.1659141 59.623676
17.579445 -6.4366469 58.726944
18.063999 -6.469944 57.799126
18.362661 -6.2537537 56.829536
18.643993 -6.0105681 55.849777
18.927101 -5.7658463 54.863834
19.211994 -5.5195665 53.871647
19.353235 -5.0695863 52.828865
19.349625 -4.409132 51.726532
19.346191 -3.7377872 50.605556
19.342463 -3.0546231 49.465309
19.335426 -2.3549919 48.304115
19.168293 -1.4111826 47.057709
18.834419 -0.20709848 45.712521
18.474693 1.0563011 44.32016
12.195084 -4.1464977 62.771664
13.797819 -5.5611563 61.948723
14.772001 -6.2011843 61.07074
15.730556 -6.8310909 60.207092
16.673613 -7.4508109 59.357403
17.60132 -8.0603046 58.521305
18.007423 -7.9978795 57.589546
18.283707 -7.7635093 56.625874
18.561712 -7.5276818 55.656197
18.841457 -7.2903843 54.680466
19.12295 -7.0515971 53.698631
19.213993 -6.5498905 52.651642
19.209269 -5.9085913 51.5592
19.158817 -5.1934109 50.432632
19.089851 -4.4404068 49.278667
19.042171 -3.7046032 48.111038
19.167055 -3.2009351 46.99197
19.293291 -2.6905334 45.858589
19.329844 -2.0418975 44.669743
18.997992 -0.84578919 43.288048
18.520306 0.58553815 41.798225
13.473813 -6.7427597 61.64513
14.637927 -7.6091704 60.804337
15.588543 -8.2217846 59.950966
16.523932 -8.824584 59.111267
17.12435 -9.0113945 58.220573
17.751934 -9.2358685 57.340916
18.072639 -9.0681381 56.395035
18.395014 -8.8999367 55.444935
18.718849 -8.7309704 54.490532
19.035839 -8.5502605 53.529381
19.034811 -7.9432993 52.46479
18.966524 -7.2361951 51.360756
18.896954 -6.5157366 50.235859
18.826048 -5.7815323 49.08952
18.754017 -5.0335131 47.921185
18.875639 -4.5415335 46.809654
18.99926 -4.0439949 45.684292
19.124212 -3.5398183 44.544563
19.250998 -3.0295346 43.390381
19.379175 -2.5123606 42.221264
19.162148 -1.4861919 40.858479
18.566465 0.11138892 39.260262
17.617975 2.2575974 37.414158
21.277025 3.9020562 27.095406
21.873711 3.7949347 26.072243
22.469177 3.6876855 25.051786
23.062946 3.5810876 24.033623
23.655266 3.4747481 23.017954
24.234625 3.3880758 21.994032
12.927053 -7.6355376 61.314022
14.506609 -8.9909782 60.542976
15.449181 -9.5865479 59.699615
16.085526 -9.8132124 58.815018
16.730362 -10.053892 57.938362
17.4853 -10.436221 57.092731
17.803268 -10.272694 56.153305
18.097614 -10.076561 55.203239
18.374889 -9.8554516 54.242958
18.653622 -9.6327238 53.276802
18.878464 -9.3362255 52.287483
18.492449 -8.2325974 51.087875
18.639318 -7.816689 50.042274
18.566555 -7.1007776 48.90345
18.492636 -6.3715091 47.742966
18.589046 -5.8612814 46.630306
18.70966 -5.3756256 45.512672
18.832027 -4.884181 44.381065
18.955713 -4.3861938 43.235027
19.081207 -3.8821819 42.074493
19.208073 -3.3713737 40.898964
19.336815 -2.8543098 39.708378
19.326422 -2.1276283 38.423569
18.612913 -0.365798 36.706013
18.407816 0.68189526 35.239616
19.040146 0.50904942 34.266449
19.649368 0.36755896 33.283852
20.229017 0.26803565 32.285873
20.763569 0.23527765 31.259476
21.296751 0.2040019 30.233189
21.829304 0.17311144 29.207491
22.361698 0.14187503 28.182732
22.893692 0.11067152 27.15873
23.396427 0.12554574 26.111328
23.880642 0.17056465 25.047346
24.365374 0.21563816 23.982224
24.850634 0.26075268 22.915955
25.336416 0.30592155 21.848526
12.089693 -8.1762238 60.942951
14.377506 -10.346767 60.286449
15.060356 -10.62368 59.40892
15.574604 -10.700909 58.506779
16.340639 -11.085974 57.659084
17.091536 -11.458298 56.818718
17.427084 -11.322702 55.888321
17.700115 -11.107109 54.937851
17.974783 -10.890228 53.981697
18.251093 -10.672032 53.019791
18.529074 -10.45253 52.052094
18.675503 -10.060398 51.034271
17.57424 -8.0449791 49.566826
17.845007 -7.7895269 48.54771
18.117611 -7.5323372 47.521679
18.301434 -7.1530313 46.451511
18.419792 -6.6798005 45.34166
18.539614 -6.200655 44.217979
18.660952 -5.7155013 43.080177
18.783823 -5.224225 41.928009
18.908245 -4.726696 40.761204
19.034269 -4.2228103 39.579468
19.161909 -3.7124331 38.382523
19.291204 -3.1954417 37.170063
19.422188 -2.6717095 35.941792
18.737692 -0.95893741 34.184307
18.904531 -0.45792508 32.924988
19.387293 -0.41312742 31.862551
19.870579 -0.36827993 30.798958
20.354378 -0.32338285 29.734222
20.838711 -0.27844381 28.668341
21.323565 -0.23344874 27.60129
21.808941 -0.18840742 26.533096
22.294846 -0.14332438 25.463753
22.781273 -0.098185062 24.393242
23.26823 -0.052996159 23.321568
23.767544 -0.026739836 22.259594
24.275499 -0.013964653 21.204845
23.803896 1.6024179 19.192253
23.844584 2.4047437 17.635391
31.211727 2.5301194 2.4479218
31.747334 2.522366 1.374752
11.217323 -8.6819706 60.565834
13.468324 -10.764404 59.907814
14.553654 -11.507048 59.099464
15.06661 -11.58283 58.200405
15.954888 -12.107519 57.382664
16.394733 -12.101055 56.477524
16.799259 -12.051723 55.563568
17.186419 -11.980444 54.643635
17.574343 -11.909018 53.72187
17.852468 -11.700424 52.765347
18.127827 -11.48513 51.801846
18.396736 -11.258341 50.829845
18.472858 -10.783403 49.783085
16.70471 -7.9426794 48.036259
17.048075 -7.7779193 47.029629
17.452126 -7.6893439 46.042908
17.857126 -7.6005654 45.053879
18.115786 -7.3170371 43.996098
18.233809 -6.8415079 42.863152
18.353317 -6.3600054 41.715969
18.474335 -5.8724213 40.554295
18.596889 -5.3786263 39.377834
18.721014 -4.8785133 38.186317
18.846745 -4.3719621 36.979446
18.006454 -2.5025971 35.173641
18.130022 -1.9631078 33.909283
17.774338 -0.73035789 32.315559
18.259556 -0.68581653 31.246777
18.745041 -0.64085817 30.176659
19.231052 -0.59584379 29.105377
19.717596 -0.55079269 28.03294
20.204666 -0.50568581 26.95933
20.692265 -0.46052694 25.884552
27.87714 -10.602747 30.35071
21.68166 -0.38942456 23.742264
22.191708 -0.37664104 22.682728
22.701916 -0.36386442 21.622875
23.212509 -0.35144544 20.562916
23.215187 0.47236729 19.009865
23.539215 0.79438686 17.747059
23.925573 1.0213914 16.536207
24.271563 1.3195047 15.273726
24.580387 1.6856284 13.958939
24.762226 2.2728376 12.486628
29.430618 2.5430708 2.5009918
30.665842 1.2314053 2.457283
31.538425 0.57756376 1.914032
11.776572 -10.297052 59.397907
14.050084 -12.384958 58.791927
14.561985 -12.459585 57.895966
15.287371 -12.784807 57.047844
15.695944 -12.741846 56.135834
16.10524 -12.699104 55.222775
16.506523 -12.646139 54.306351
16.8937 -12.575388 53.384411
17.281654 -12.504499 52.460629
17.670391 -12.433472 51.534996
18.005091 -12.294769 50.589092
18.196028 -11.975376 49.588051
15.604269 -8.1682863 47.538475
15.990212 -8.0570612 46.541306
16.395243 -7.9683294 45.548588
16.801235 -7.8793936 44.553524
17.208172 -7.7902393 43.556122
17.616083 -7.7008824 42.556355
17.927301 -7.4830351 41.50613
18.04497 -7.0051894 40.349541
18.164135 -6.5213051 39.17831
18.284805 -6.031251 37.992172
18.407036 -5.5349312 36.79084
17.893385 -4.1587319 35.190697
17.930008 -3.5191681 33.888069
16.631178 -1.0063567 31.699177
17.118357 -0.96133339 30.623619
17.606062 -0.91626239 29.546898
18.094561 -0.87150478 28.469173
25.529039 -10.863016 32.563972
26.050364 -10.956591 31.685265
26.955475 -11.616755 31.115505
27.778414 -12.167189 30.501842
28.22827 -12.168547 29.591135
28.279747 -11.566849 28.331068
21.6257 -0.70478272 20.979908
22.138493 -0.69198561 19.914234
22.163256 0.081596851 18.378305
22.605598 0.21330237 17.227301
23.087046 0.28548741 16.111216
23.546659 0.39418888 14.969328
23.977291 0.55211687 13.79174
24.382996 0.75415063 12.580057
24.719114 1.0756214 11.280272
25.00975 1.4799557 9.9136868
25.169941 2.1135011 8.371748
25.50062 3.4041128 5.2217827
26.196049 3.1447244 4.3080406
27.001976 2.6844077 3.5558472
27.841034 2.1545601 2.8699265
28.929623 1.1619143 2.5661888
29.782162 0.57774496 1.9572144
30.311319 0.57774043 0.88290787
10.030598 -9.8145008 58.871685
12.407221 -11.968279 58.274765
14.060238 -13.330679 57.593346
14.588724 -13.425423 56.706383
14.996936 -13.382843 55.794025
15.405876 -13.340483 54.880615
15.815083 -13.2978 53.966034
16.213297 -13.241522 53.047077
16.600506 -13.171312 52.123116
16.988485 -13.10096 51.197311
17.377239 -13.030466 50.269653
17.135614 -12.192581 49.115314
17.379398 -11.936325 48.117302
17.536888 -11.569498 47.077419
17.487247 -10.939112 45.940659
15.733642 -8.1613045 44.04763
16.141579 -8.0719976 43.044094
16.55048 -7.9824734 42.038174
16.960594 -7.8930473 41.029987
20.057009 -11.282639 41.397812
20.694157 -11.515709 40.561798
21.303009 -11.715405 39.717712
21.880444 -11.876732 38.862095
22.470884 -12.058228 38.019657
23.030605 -12.201332 37.164223
23.588295 -12.344147 36.31234
24.024038 -12.321795 35.383797
24.452578 -12.289059 34.449493
24.881702 -12.256561 33.514465
25.422535 -12.381189 32.66111
26.058783 -12.644009 31.885326
26.713284 -12.937862 31.13341
27.161329 -12.937595 30.223246
19.508509 -1.0747857 22.471779
20.023426 -1.061981 21.401236
20.538506 -1.04918 20.330366
21.053741 -1.036371 19.259165
20.018948 1.3341827 16.70628
22.279938 0.32491589 14.097269
22.876865 0.22293615 13.085564
23.381523 0.2663424 11.975773
23.827396 0.40554571 10.79726
24.247707 0.58933997 9.583107
24.649679 0.80720758 8.3393002
25.024637 1.0746851 7.0529404
25.35384 1.4249153 5.6970253
25.963449 1.3055315 4.693737
26.667189 1.0215921 3.8223877
27.458939 0.57830119 3.0851974
27.993011 0.57830739 2.000885
28.527519 0.57754397 0.917202
10.60861 -11.422638 57.721832
12.840744 -13.393723 57.145283
13.889855 -14.06624 56.364822
14.297939 -14.024307 55.452168
14.706285 -13.982059 54.538345
15.115129 -13.93976 53.623421
15.524703 -13.897678 52.707439
15.919592 -13.837881 51.785728
16.306814 -13.768204 50.859756
16.694822 -13.698395 49.931923
16.429867 -12.850435 48.768311
16.790915 -12.74017 47.814034
17.120113 -12.589695 46.843739
17.411713 -12.391087 45.853184
17.784737 -12.289299 44.891609
18.407625 -12.49505 44.039856
19.019938 -12.690905 43.189716
19.550983 -12.787741 42.305885
20.077797 -12.880795 41.423042
20.590544 -12.95739 40.53574
21.094635 -13.024103 39.646179
21.597775 -13.090689 38.758297
22.106739 -13.166023 37.876144
22.608112 -13.232609 36.991844
23.108139 -13.298536 36.108959
23.526768 -13.256205 35.174103
23.919752 -13.178383 34.220085
15.820444 -1.486369 27.202177
16.337029 -1.4735773 26.127716
16.853773 -1.4607857 25.052933
17.370676 -1.4479866 23.97781
17.887737 -1.435179 22.902348
18.404966 -1.4223722 21.82655
18.922352 -1.4095571 20.750412
23.830618 0.87640667 6.1983643
24.553196 0.57849121 5.3291626
25.091824 0.57926083 4.2340736
25.631378 0.57849145 3.1401901
26.169792 0.5796442 2.0447617
10.343304 -12.086229 56.428677
11.265511 -12.591673 55.592995
12.174753 -13.090012 54.769058
13.287273 -13.822132 54.01189
14.415189 -14.58219 53.280754
14.824173 -14.540226 52.364357
15.233883 -14.498474 51.446915
15.62517 -14.434958 50.52224
16.012659 -14.366093 49.594307
15.365172 -13.090288 48.292294
15.867882 -13.145433 47.384769
16.324636 -13.14706 46.460781
16.741734 -13.101429 45.52039
17.223175 -13.132399 44.606461
17.874678 -13.369759 43.770557
18.526403 -13.611145 42.942459
19.002279 -13.640062 42.035622
19.467628 -13.656391 41.124336
19.929333 -13.668427 40.211647
20.376234 -13.662006 39.291161
20.80974 -13.638458 38.362747
21.211945 -13.574423 37.414841
16.672863 -7.1262326 33.405594
16.66643 -6.4738908 32.080753
16.545269 -5.6597352 30.656973
16.395126 -4.7932129 29.184633
16.229122 -3.8904986 27.670275
23.224243 0.57984304 4.3001747
23.769417 0.57829332 3.1965218
24.312428 0.58023715 2.0900917
10.563034 -12.270142 53.144154
11.490303 -12.778046 52.326168
12.646282 -13.546658 51.590302
14.261683 -14.839117 51.019707
14.942381 -15.099926 50.184395
11.69587 -10.917601 48.00922
11.067084 -9.1046276 45.485718
15.036466 -13.138422 45.881962
15.669117 -13.340139 45.020332
16.264717 -13.501387 44.149105
16.883554 -13.692669 43.293652
17.46349 -13.840479 42.426056
17.666695 -13.53718 41.377773
14.342999 -8.9504795 38.511707
14.775492 -8.883646 37.493557
14.862317 -8.3896427 36.281826
15.305836 -8.3308716 35.258186
15.750055 -8.2720156 34.232944
16.172842 -8.1851158 33.19244
16.103193 -7.4695506 31.833979
16.005016 -6.7053323 30.431459
15.853095 -5.8585701 28.965036
15.710064 -5.0089622 27.474602
15.519903 -4.0826335 25.919039
10.786104 -12.456911 49.813618
11.987437 -13.263348 49.102051
11.474907 -9.4734573 42.024422
12.070637 -9.5979271 41.081566
12.501476 -9.5316143 40.064812
12.933089 -9.4651804 39.04623
13.365479 -9.398633 38.025822
13.35857 -8.8054838 36.769283
13.850347 -8.8042374 35.768188
14.294884 -8.7455521 34.739964
14.74012 -8.6867733 33.710117
15.066855 -8.4806509 32.605232
15.405035 -8.2853956 31.500395
15.467526 -7.7406917 30.206732
15.315491 -6.9152417 28.747234
15.167451 -6.0809841 27.260757
15.014557 -5.2262983 25.740379
14.800503 -4.2775316 24.142639
11.886542 -9.8457355 38.53075
12.380915 -9.8500175 37.53643
12.325907 -9.2113304 36.250038
12.823992 -9.2150707 35.24699
13.275623 -9.1636372 34.21748
13.612995 -8.9744415 33.118389
13.92339 -8.7496061 31.996054
14.259619 -8.5525932 30.882172
14.596845 -8.3535786 29.761883
14.782505 -7.9636378 28.531376
14.629038 -7.1438599 27.048479
14.472194 -6.3060875 25.533051
14.294807 -5.4280729 23.971233
14.070686 -4.4752412 22.340536
8.3338547 -6.8323026 35.479637
9.9231491 -8.0617123 35.002934
11.462551 -9.2526312 34.541424
12.150351 -9.4716396 33.634903
12.457014 -9.2472887 32.510471
12.765549 -9.0215759 31.379196
13.099986 -8.823103 30.256264
13.413321 -8.5960846 29.11232
13.721646 -8.3593082 27.956722
14.051823 -8.1453133 26.807716
13.933001 -7.3752532 25.326481
13.767664 -6.5346246 23.78183
13.56496 -5.6330872 22.176805
13.330237 -4.6758451 20.512182
8.1047955 -6.4747162 31.386805
10.838841 -9.0098934 31.630402
11.593306 -9.2969208 30.754683
11.909452 -9.0778751 29.612175
12.214079 -8.8418045 28.454155
12.520641 -8.6042328 27.288761
12.83216 -8.3687229 26.118025
13.167383 -8.1578808 24.955544
13.227719 -7.6101432 23.581141
13.053122 -6.7659836 22.00621
12.824812 -5.8414283 20.356583
12.57892 -4.8793869 18.656969
8.0427189 -6.9034491 28.680532
10.696032 -9.3276587 28.955044
10.998819 -9.0908127 27.787193
11.303543 -8.8524456 26.611858
11.61023 -8.6125488 25.428963
11.929495 -8.3835812 24.246058
12.265467 -8.1706905 23.066778
12.512453 -7.8479309 21.811579
12.324113 -6.995111 20.202316
12.073568 -6.0524569 18.509552
8.0140505 -7.374145 25.972269
10.070024 -9.1040039 25.925812
10.374801 -8.863306 24.732698
10.681546 -8.6210318 23.531836
11.008877 -8.3987293 22.33683
11.345568 -8.1837673 21.140337
11.684475 -7.9679008 19.937189
11.572698 -7.2131333 18.36315
9.0565414 -9.0438547 23.981434
9.4272852 -8.8743801 22.815565
9.7340307 -8.6296864 21.596243
10.069756 -8.4141865 20.389263
10.407125 -8.1970997 19.175077
10.746739 -7.9790888 17.954079
5.079937 -5.7493486 19.910419
8.4604187 -8.8856792 20.859299
8.7752333 -8.6475945 19.627119
9.1115761 -8.4299517 18.402149
8.3950653 -7.0140233 16.329998
6.7884016 -8.1489906 18.349728
6.5684118 -7.3139353 16.671284
6.9956675 -7.1836042 15.472181
6.7757983 -6.3276167 13.740221
4.347353 -6.6292329 15.199018
5.5334015 -7.313014 14.568863
5.7434483 -6.9409084 13.17495
3.7442226 -7.1259313 13.413134
4.4099464 -7.2412553 12.367891
4.2368355 -6.4552369 10.631443
2.7031498 -7.174726 11.26441
2.9735222 -6.8663135 9.8785038
4.3314018 -4.6185079 1.0215111
1.3715029 -6.947618 8.8503399
1.1069508 -6.0812058 6.9852066
0.27320576 -4.6066661 4.5895805
0.87766266 -4.6232009 3.4082146
1.6238775 -4.7904258 2.3568802
2.7720308 -5.3902602 1.6889572
4.0515652 -6.1414161 1.1738625
-0.76807308 -6.5221267 7.3881493
-0.14429092 -6.5656629 6.2450409
0.22843361 -6.3535609 4.8874931
0.74426746 -6.2854009 3.6471367
1.3742523 -6.3345313 2.5072975
2.5070992 -6.9099727 1.8374023
3.2352705 -7.0682759 0.8074646
3.8112535 -7.0675235 -0.36404419
-1.9775639 -7.0675673 6.6926079
-1.3940449 -7.0679469 5.5090179
-0.81090927 -7.067945 4.3251076
-0.22814655 -7.0675673 3.1408653
0.35424709 -7.0668168 1.9562874
0.93665028 -7.0660586 0.77167511
-3.1809349 -7.0660834 4.3290749
-2.5908031 -7.0664659 3.1320953
17.040049 -2.2793748 72.809845
18.043991 -2.6489942 72.326431
18.744354 -2.7001026 71.698036
19.235914 -2.5248611 70.959694
19.324656 -1.9013622 69.992905
19.623489 -1.4974029 69.125191
15.244754 -2.2620561 72.730812
17.058525 -3.4488151 72.623978
18.211302 -3.9716642 72.223228
18.807817 -3.9185569 71.550323
19.244757 -3.6936004 70.789833
19.483349 -3.2488592 69.91156
19.685966 -2.7542207 68.997498
19.986715 -2.3564155 68.124573
15.643003 -3.8146932 72.716888
16.961529 -4.4857254 72.384209
17.864313 -4.7455873 71.863197
18.473732 -4.7071609 71.197327
18.893738 -4.4692059 70.427734
19.260086 -4.1687975 69.620041
19.628998 -3.8640802 68.803452
19.876907 -3.4206798 67.904129
19.494469 -2.2737072 66.601509
15.298191 -4.6066971 72.354111
16.531548 -5.1806841 71.982162
17.412388 -5.4129343 71.449875
18.0499 -5.4029255 70.79734
18.442661 -5.1409168 70.011368
18.840343 -4.8779764 69.219086
19.21032 -4.5797405 68.401527
19.373194 -4.0538588 67.44944
19.495409 -3.4715879 66.453384
19.708357 -2.9742162 65.494011
13.515631 4.6088781 60.306442
14.681231 4.1537189 59.823921
15.831411 3.7045834 59.347778
14.672346 -5.1261854 71.856735
15.955417 -5.7351446 71.507309
16.73773 -5.8635712 70.921898
17.41761 -5.8926964 70.286667
17.820845 -5.6433821 69.50119
18.295288 -5.4610081 68.747139
18.646759 -5.1474676 67.914955
18.918751 -4.7435675 67.023712
19.236269 -4.37819 66.146011
19.151312 -3.5735919 64.997375
14.583233 2.1034253 60.861603
15.713951 1.6754487 60.387051
16.751728 1.339926 59.863689
17.298115 1.5479815 58.998314
17.530237 2.118922 57.890839
17.59782 2.8942821 56.634499
17.230709 4.1975451 55.003479
13.938779 -5.5528021 71.30574
15.085258 -6.0157175 70.884399
16.045378 -6.3085155 70.382935
16.774559 -6.3819017 69.768707
17.07667 -6.03442 68.922287
17.58511 -5.885479 68.180534
17.966242 -5.6042604 67.358887
18.325329 -5.2939167 66.513657
18.041195 -4.3098936 65.256363
14.488637 0.12402081 61.863403
15.768881 -0.46258521 61.502052
16.532965 -0.50919604 60.810982
17.070316 -0.31044793 59.962299
17.610844 -0.11021352 59.108116
17.983978 0.28171229 58.121048
18.166992 0.89838195 56.97205
18.241869 1.6547987 55.71228
18.318508 2.4291179 54.42271
12.043251 -4.9133987 70.187576
13.998251 -6.1110125 70.149498
14.63256 -6.0817432 69.468338
15.582472 -6.3545856 68.955139
16.143509 -6.2563124 68.236809
16.701717 -6.1530361 67.51329
17.156475 -5.9447556 66.725159
17.457859 -5.5777063 65.836273
16.681713 -4.1078739 64.259773
15.81764 -2.512881 62.570866
16.41869 -2.403084 61.794075
16.922537 -2.1883276 60.946487
17.381025 -1.9199808 60.058472
17.91581 -1.7272389 59.215187
18.408823 -1.4840276 58.332882
18.596008 -0.89633393 57.205021
18.786533 -0.29719853 56.055511
18.878624 0.42934299 54.800499
18.721907 1.4613101 53.305435
18.237764 2.9026444 51.482544
13.977039 -5.9691124 67.91423
14.906557 -6.2104025 67.379395
15.607038 -6.2368593 66.722183
16.055214 -6.0185213 65.91687
15.564448 -4.8714628 64.531387
15.37766 -4.0002499 63.293121
15.654913 -3.5757873 62.321571
16.562546 -3.7835281 61.753742
17.109165 -3.6239922 60.946167
17.603401 -3.4058888 60.095177
18.101011 -3.1859696 59.237846
18.669815 -3.0367177 58.424911
19.009514 -2.6354702 57.428886
19.201344 -2.0616801 56.298504
19.396805 -1.4770219 55.146713
19.508221 -0.78232598 53.898979
18.821041 0.84224296 51.928837
18.449287 2.1458981 50.16819
12.73837 -4.0081167 63.789726
13.530008 -4.0885 63.132469
14.917537 -4.7518787 62.853947
15.742826 -4.8760366 62.236221
16.361736 -4.7971048 61.485352
16.931782 -4.6669111 60.697659
17.519417 -4.5515547 59.917171
18.109348 -4.4357443 59.133636
18.652 -4.26752 58.309753
18.973951 -3.8608944 57.308022
19.300335 -3.4486802 56.292519
19.631241 -3.030761 55.262955
19.966755 -2.6070054 54.219021
19.628971 -1.4198329 52.572144
19.005726 0.12237 50.617203
18.661888 1.3858588 48.848793
13.345429 -5.1166382 62.861576
14.480958 -5.5282412 62.429398
15.38603 -5.7266331 61.863338
16.285172 -5.9238901 61.30127
16.976364 -5.9200535 60.603519
17.559608 -5.8080063 59.828812
18.144897 -5.6953068 59.050938
18.617779 -5.4644766 58.183617
18.93738 -5.0686407 57.187607
19.261364 -4.6674032 56.177986
19.586403 -4.2570295 55.151699
19.902018 -3.8258393 54.099266
19.975187 -3.1181967 52.816872
19.729767 -2.0386899 51.217628
19.215702 -0.62836337 49.32172
18.867224 0.6320188 47.516453
13.10328 -6.0829134 62.556293
14.349779 -6.5917549 62.198685
15.162384 -6.7014866 61.57777
15.979315 -6.8179207 60.964241
16.871767 -7.0103016 60.407852
17.59898 -7.0452166 59.741634
18.180115 -6.9359646 58.96965
18.583992 -6.6459351 58.05912
18.901287 -6.260643 57.06876
19.20903 -5.8558407 56.053871
19.517757 -5.4417887 55.021839
19.831139 -5.0219975 53.975128
19.864643 -4.2917166 52.665897
19.853846 -3.4941032 51.283352
19.831329 -2.6622751 49.852749
19.417709 -1.3722482 48.012829
19.062796 -0.11303258 46.16803
18.439211 1.4888909 43.993221
12.7439 -6.9366779 62.179234
14.218409 -7.6446133 61.969147
15.061352 -7.7830687 61.373497
15.867048 -7.8897839 60.7584
16.669882 -7.996294 60.145802
17.469463 -8.1021996 59.535374
18.214596 -8.157732 58.889427
18.54356 -7.8052216 57.930855
18.841461 -7.4131012 56.932598
19.143559 -7.0154486 55.920265
19.450148 -6.6123562 54.893723
19.760921 -6.203289 53.852333
19.755108 -5.4520702 52.516411
19.742908 -4.6743717 51.139591
19.705675 -3.8491132 49.70285
19.729227 -3.0678694 48.283943
19.610893 -2.1085966 46.68895
19.259045 -0.86130953 44.813057
18.683483 0.67498875 42.644684
12.340487 -7.7496061 61.775024
13.977809 -8.5891294 61.670986
14.961315 -8.8539963 61.17123
15.763232 -8.9581537 60.559544
16.562117 -9.0619202 59.950176
17.358192 -9.1654902 59.343258
18.063625 -9.1852865 58.673981
18.455715 -8.9038286 57.767845
18.779011 -8.5484467 56.795486
19.078865 -8.1611385 55.788261
19.383148 -7.7685671 54.766991
19.659798 -7.3380775 53.704102
19.646776 -6.5996952 52.368557
19.589808 -5.7964749 50.958542
19.479418 -4.9159069 49.460678
19.495731 -4.1468573 48.039787
19.650574 -3.5066347 46.715656
19.805189 -2.8485856 45.359196
19.456217 -1.6131063 43.451714
18.928534 -0.14154458 41.291763
17.993418 1.8374588 38.612469
11.937335 -8.5626822 61.370979
13.640418 -9.4425621 61.311401
14.862262 -9.9144325 60.970951
15.660433 -10.016075 60.362633
16.446869 -10.109387 59.750496
17.016733 -10.005557 58.986687
17.817017 -10.113852 58.388687
18.252958 -9.8813715 57.518501
18.61186 -9.569766 56.57756
18.974936 -9.2545395 55.625679
19.316952 -8.9108934 54.641777
19.553949 -8.4546356 53.552547
19.478142 -7.6731615 52.168663
19.368124 -6.8367748 50.716415
19.254993 -5.975306 49.220428
19.264116 -5.2184381 47.797573
19.415707 -4.5917339 46.47538
19.570797 -3.9517159 45.124817
19.729284 -3.2977159 43.74474
19.654327 -2.3684545 42.083954
19.174152 -0.96046937 39.934193
17.80471 1.4950688 36.716999
18.088915 2.1224072 35.261009
18.581512 2.5253527 34.015759
19.078667 2.935045 32.753349
19.564545 3.3707936 31.453548
11.397716 -9.2594957 60.881451
13.243427 -10.242404 60.913685
14.763941 -10.964325 60.772476
15.494038 -11.006826 60.123581
16.060888 -10.904944 59.362076
16.629927 -10.802665 58.597622
17.571465 -11.037466 58.104694
18.051579 -10.852322 57.270844
18.408102 -10.547365 56.331673
18.767925 -10.238092 55.380951
19.101458 -9.89604 54.39389
19.417252 -9.5282669 53.375427
19.260845 -8.6881666 51.926735
19.147991 -7.8697805 50.475983
19.031948 -7.0269451 48.981697
19.033922 -6.2822266 47.556862
19.182743 -5.6693258 46.23703
19.334764 -5.0432243 44.888779
19.489872 -4.4032488 43.510933
19.648624 -3.7494273 42.102989
19.810907 -3.081048 40.663696
19.420811 -1.7823272 38.572453
18.706223 -0.081712246 36.037842
19.204432 0.28739476 34.834415
19.700583 0.66988778 33.607471
20.180893 1.0825593 32.338711
20.667393 1.5005486 31.053598
21.1602 1.923959 29.751822
21.65943 2.3528984 28.43306
22.16523 2.7874701 27.096966
22.677713 3.2277844 25.743216
10.321148 -9.51367 60.053619
12.31291 -10.592651 60.170864
14.229489 -11.631662 60.28516
15.108761 -11.800427 59.735764
15.674793 -11.70009 58.97361
16.328005 -11.674281 58.269951
17.327156 -11.956363 57.822163
17.801865 -11.771905 56.986908
18.124424 -11.444119 56.023651
18.451073 -11.112174 55.048172
18.782099 -10.776193 54.060429
19.117165 -10.4357 53.059826
18.091536 -8.7818108 50.852722
18.533539 -8.511137 49.881653
18.81048 -8.0711241 48.744652
18.805565 -7.3387508 47.31805
18.9512 -6.7390203 46.000168
19.100191 -6.126646 44.654213
19.252419 -5.5009861 43.279053
19.40799 -4.8616056 41.873737
19.567005 -4.208045 40.437252
19.729353 -3.5395789 38.968304
19.668266 -2.6068647 37.206284
19.193367 -1.1865174 34.904934
19.770514 -0.91206241 33.791332
20.502975 -0.8073802 32.854256
21.208672 -0.66837001 31.87685
21.696186 -0.26724815 30.605289
22.189684 0.13929844 29.317146
22.689777 0.55078864 28.012743
23.196344 0.96761608 26.691435
23.70953 1.3898675 25.352905
24.229441 1.8176663 23.996811
24.755985 2.2514203 22.622437
11.256291 -10.858057 59.343819
13.226471 -11.913505 59.484535
14.723804 -12.594001 59.348194
15.289018 -12.495208 58.585396
16.086191 -12.594185 57.986176
16.782511 -12.607478 57.316444
17.290188 -12.454582 56.502972
17.775166 -12.277785 55.664402
18.135132 -11.983747 54.716358
18.463459 -11.653607 53.727753
18.796204 -11.319429 52.726654
19.048672 -10.901642 51.638611
17.233593 -8.5101919 48.670788
17.732742 -8.2830095 47.717274
18.327749 -8.1433134 46.842873
18.652073 -7.7328186 45.697559
18.801588 -7.1365948 44.355598
18.954086 -6.5273275 42.984566
19.11013 -5.905045 41.583958
19.269371 -5.2688565 40.15234
19.432377 -4.6187735 38.689167
19.59882 -3.9538429 37.192863
18.755295 -2.1721497 34.473003
18.696438 -1.2034127 32.594383
19.434914 -1.0981103 31.645304
20.175629 -0.992172 30.692711
20.919096 -0.88615119 29.737204
21.664835 -0.77949619 28.778154
22.413349 -0.67276263 27.816174
23.164169 -0.56537628 26.85058
23.91777 -0.45791245 25.88205
24.631012 -0.29645419 24.845894
25.151199 0.11570096 23.501396
25.678179 0.53324485 22.139328
10.177954 -11.129187 58.499733
12.203678 -12.201156 58.668106
14.230556 -13.297954 58.886143
14.903348 -13.29011 58.197292
15.684562 -13.373541 57.586845
16.19109 -13.22452 56.775303
16.700623 -13.074613 55.958946
17.198763 -12.911223 55.126381
17.686409 -12.73466 54.277344
18.145945 -12.528681 53.39621
18.475964 -12.200395 52.394264
18.810444 -11.868073 51.379585
18.907606 -11.307151 50.134335
16.697569 -8.5633926 46.728477
17.29619 -8.4229441 45.842388
17.89809 -8.2819996 44.952003
18.436321 -8.075119 43.99033
18.584709 -7.4766808 42.617069
18.736549 -6.8654804 41.21423
18.891479 -6.2406311 39.780361
19.050093 -5.6021595 38.31493
19.212023 -4.9491205 36.816368
18.376438 -3.2188177 34.110386
17.599228 -1.501043 31.371674
18.343803 -1.3951075 30.410269
19.090664 -1.2885346 29.445276
19.840326 -1.1818744 28.477303
20.592308 -1.0745665 27.505684
21.347107 -0.96717536 26.531078
22.104259 -0.85913289 25.552784
22.864258 -0.75100207 24.571466
23.626637 -0.64221311 23.58642
24.404129 -0.54850435 22.617125
25.186207 -0.45738244 21.64854
24.255049 1.8326023 17.892582
11.160068 -12.494414 57.835072
13.22954 -13.595906 58.073296
14.585507 -14.140036 57.857311
15.089218 -13.993403 57.046398
15.595683 -13.845716 56.230518
