# .PCD v0.7 - Point Cloud Data file format
VERSION 0.7
FIELDS x y z
SIZE 4 4 4
TYPE F F F
COUNT 1 1 1
WIDTH 1543
HEIGHT 1
VIEWPOINT 0 0 0 1 0 0 0
POINTS 1543
DATA ascii
-4.9212818 20.135094 183.31909
-49.102226 27.586639 76.592087
-48.714256 26.90242 80.363953
-46.803192 26.972054 82.542351
-46.443581 26.293352 86.250648
-45.024841 26.132711 88.880241
-44.703499 25.456772 92.52507
-43.937675 25.001514 95.701653
-44.046501 24.149288 99.621918
-43.00209 23.842428 102.45691
-41.996513 23.523508 105.29839
-41.02475 23.195118 108.14061
-40.088249 22.856865 110.98354
-39.192123 22.506744 113.83
-38.32975 22.147976 116.67335
-37.503281 21.779861 119.51411
-36.714043 21.402058 122.35216
-35.862549 21.057373 125.11407
-34.803696 20.806492 127.70114
-33.496845 20.664129 130.0966
-31.927055 20.633793 132.30336
-30.181797 20.67651 134.3923
-28.194765 20.81768 136.32944
-25.934465 21.067692 138.1066
-23.362003 21.43959 139.71271
-24.284729 20.406708 143.42514
-23.918905 19.901876 146.31262
-22.885532 19.667959 148.78534
-23.320494 18.863914 152.04749
-23.397333 18.211248 155.0583
-23.158062 17.690289 157.85645
-22.598068 17.299772 160.45395
-21.760527 17.020363 162.88632
-22.096291 16.303967 165.86087
-21.754293 15.851267 168.46851
-19.855373 15.982035 170.33948
-16.444132 16.666962 171.55499
-15.37108 16.488388 173.81596
-14.112059 16.379799 175.98755
-12.520002 16.39259 178.01794
-10.487932 16.562344 179.87796
-7.3144207 17.134438 181.31912
-21.082697 39.853962 37.480938
-22.820412 38.002586 44.344749
-49.644485 24.188721 77.353989
-48.942612 23.683044 80.774216
-46.893494 23.819077 82.79393
-46.867516 23.012758 86.811584
-46.350563 22.447704 90.282242
-45.86438 21.879316 93.728966
-44.990196 21.496725 96.767456
-44.020599 21.163908 99.685387
-42.979774 20.868776 102.51071
-41.977631 20.562042 105.34254
-41.009125 20.246197 108.17518
-40.077232 19.920216 111.00981
-39.18483 19.583138 113.84739
-38.325317 19.238045 116.68135
-37.501549 18.883953 119.51282
-36.715607 18.520231 122.34218
-35.867607 18.188358 125.09571
-34.812889 17.946716 127.675
-33.517609 17.806782 130.06784
-31.952906 17.777607 132.26741
-30.21784 17.816914 134.35242
-28.241219 17.951199 136.28555
-25.99622 18.188658 138.06149
-23.43976 18.543587 139.66621
-23.752274 17.784454 143.0061
-23.368412 17.304283 145.88257
-22.030478 17.194464 148.18268
-22.339516 16.465021 151.38043
-22.292843 15.880065 154.33167
-22.015049 15.389967 157.11784
-21.532148 14.982968 159.76292
-20.688213 14.714216 162.19928
-20.617428 14.168818 164.98676
-20.788315 13.544481 167.84673
-19.168724 13.569811 169.84912
-15.134613 14.452 170.79005
-13.966814 14.311097 173.0202
-12.536554 14.264064 175.13138
-10.602251 14.392794 177.03635
-7.807703 14.816359 178.61475
-17.102442 42.210068 12.022003
-20.468708 38.467781 26.778175
-21.771355 36.834541 33.436882
-23.480156 35.043266 40.371933
-23.697041 33.982262 45.524406
-50.111008 20.867897 78.03389
-49.100151 20.526731 81.110153
-47.194382 20.596649 83.255295
-47.14254 19.835356 87.224808
-46.333206 19.424395 90.394028
-45.837273 18.883524 93.817299
-44.966888 18.515675 96.845787
-43.994881 18.198431 99.748421
-42.958321 17.914574 102.56475
-41.961746 17.618944 105.38889
-40.996521 17.315489 108.21195
-40.067726 17.002289 111.03709
-39.176857 16.679008 113.86408
-38.153698 16.415413 116.55897
-36.44529 16.43384 118.70874
-35.613934 16.099911 121.51212
-34.753731 15.783163 124.26535
-33.721794 15.539537 126.86943
-32.464466 15.388195 129.29668
-30.951778 15.338455 131.53867
-29.18273 15.388195 133.60762
-27.185678 15.524146 135.53427
-24.934126 15.754232 137.31284
-22.385303 16.092251 138.92877
-22.49959 15.432781 142.15823
-22.223576 14.928009 145.10764
-21.10589 14.739794 147.54039
-20.768879 14.270496 150.38812
-20.677139 13.719923 153.33015
-20.319771 13.272964 156.09015
-19.759594 12.904919 158.71213
-18.988794 12.616749 161.20146
-17.770582 12.489567 163.45349
-19.298529 11.409882 166.97945
-18.074139 11.295642 169.17328
-15.17412 11.756874 170.61911
-11.834875 12.360694 171.91119
-10.076895 12.422133 173.90567
-7.4307766 12.780255 175.54639
-21.452837 37.29068 12.102905
-20.463633 36.727036 16.402077
-21.580891 35.1922 23.102814
-21.703735 34.148052 28.498375
-22.323843 32.897804 34.337624
-23.323425 31.500938 40.458641
-23.160231 30.652826 45.186665
-49.84774 17.909918 77.947083
-48.824341 17.588764 81.00061
-46.871284 17.678259 83.089905
-46.766083 16.969826 86.998375
-46.320992 16.41988 90.509865
-44.77552 16.345495 92.93589
-43.88044 16.000069 95.950043
-42.919151 15.688488 98.871048
-41.849747 15.427051 101.66721
-40.813175 15.15697 104.46624
-39.813164 14.876959 107.2701
-38.843166 14.589911 110.07196
-37.910568 14.293088 112.87674
-37.011673 13.988191 115.68021
-36.054634 13.711236 118.41134
-35.114189 13.432623 121.1295
-34.16819 13.160878 123.81841
-33.081436 12.947205 126.38316
-31.782919 12.816906 128.78238
-30.276154 12.766588 131.02948
-28.557447 12.795649 133.13254
-26.613369 12.907083 135.09328
-24.348217 13.133782 136.86234
-21.742149 13.48015 138.44234
-20.16217 13.452824 140.66327
-20.310333 12.810749 143.88576
-19.380095 12.559618 146.44426
-18.410507 12.326185 148.96025
-18.369766 11.773367 151.95587
-17.986778 11.347113 154.72748
-17.364429 11.009311 157.3428
-16.535801 10.746714 159.82884
-15.435108 10.579817 162.16295
-16.63798 9.644145 165.56247
-16.287403 9.238553 168.18155
-13.985006 9.4828262 169.90601
-9.5297756 10.428617 170.72501
-4.6228619 11.507619 171.42838
-21.500597 33.436844 12.537804
-20.9694 32.691719 17.358826
-21.411137 31.525644 23.231178
-21.072857 30.729626 28.080421
-21.2386 29.728235 33.404015
-21.90658 28.528418 39.165886
-21.699549 27.729237 43.860222
-49.464638 15.016675 77.734039
-48.534554 14.669662 80.876045
-46.489494 14.795672 82.865196
-46.390762 14.112979 86.772659
-44.881874 14.021845 89.259064
-44.425079 13.504719 92.720703
-43.56134 13.161074 95.756935
-42.616112 12.856259 98.685333
-41.529259 12.612988 101.45922
-40.393219 12.393379 104.16678
-39.293274 12.163683 106.88275
-38.223717 11.926351 109.60104
-37.182411 11.682406 112.31882
-36.176834 11.429196 115.04094
-35.201885 11.168875 117.76218
-34.260551 10.900507 120.48378
-33.337288 10.630029 123.19332
-32.304451 10.404146 125.80003
-31.056952 10.259838 128.23732
-29.525082 10.220138 130.4693
-27.72456 10.276862 132.5206
-25.714195 10.40686 134.44211
-23.465702 10.61829 136.22578
-20.820456 10.964379 137.78551
-17.762754 11.447346 139.12961
-16.927303 11.161666 141.80792
-16.432814 10.764601 144.65471
-15.019997 10.683307 146.96046
-15.075377 10.112074 150.04871
-14.642941 9.7115231 152.83327
-13.977121 9.3939381 155.46529
-13.044374 9.1684198 157.93851
-11.793839 9.0494127 160.23978
-9.770092 9.1812611 162.16861
-13.179615 7.5736971 166.58545
-11.755072 7.5241804 168.73077
-8.1299267 8.1688929 169.92523
-20.97526 29.866835 12.271278
-19.645708 29.500202 16.130066
-19.661772 28.561861 21.514992
-19.286015 27.809557 26.342804
-18.637077 27.187637 30.77829
-19.022797 26.146048 36.272469
-19.238039 25.195513 41.465988
-49.051674 12.14505 77.48922
-48.246666 11.762139 80.752731
-46.243271 11.86782 82.775581
-46.0028 11.270265 86.534134
-44.370872 11.232219 88.897064
-43.783905 10.786982 92.233238
-42.879379 10.472776 95.231651
-41.86882 10.20496 98.102104
-40.701714 10.001444 100.80775
-39.564064 9.7904968 103.51749
-38.456001 9.5722771 106.23029
-37.38356 9.3447351 108.95
-36.339493 9.1107864 111.66935
-35.327583 8.8692074 114.39041
-34.35083 8.6191206 117.1143
-33.378815 8.3716078 119.81715
-32.315231 8.1606989 122.4294
-31.181787 7.9778557 124.97172
-29.858919 7.8640013 127.3654
-28.330013 7.8231707 129.60904
-26.597479 7.8527431 131.71457
-24.585382 7.9768047 133.64294
-22.184978 8.2297134 135.33908
-19.546564 8.5581465 136.91278
-16.289221 9.0866308 138.14696
-12.150997 9.8966436 138.91632
-8.2402573 10.619762 139.88748
-12.633144 8.6418819 145.51196
-10.875719 8.6713552 147.65074
-9.6295013 8.5373096 150.06007
-8.1457844 8.4804754 152.33655
-6.2248039 8.5618877 154.39096
-19.697302 26.624527 11.087959
-16.547972 27.029737 12.790977
-16.063742 26.326984 17.648338
-15.694628 25.591457 22.551338
-14.472692 25.215525 26.414635
-12.844517 25.009684 29.789864
-12.857561 24.157331 34.892601
-48.229424 9.4423599 76.816528
-47.577927 9.014946 80.239708
-45.713974 9.0625267 82.402435
-44.937233 8.6945658 85.633018
-43.388351 8.6252174 88.084213
-42.806374 8.1952572 91.431381
-42.009487 7.8529015 94.53463
-41.009762 7.5913296 97.41909
-39.873978 7.3840332 100.15626
-38.7332 7.1822491 102.86687
-37.622108 6.9734249 105.58077
-36.540825 6.7577133 108.29689
-35.358292 6.5813465 110.90968
-34.19384 6.4017258 113.51827
-33.059593 6.2147512 116.13135
-31.953432 6.0213356 118.74622
-30.882286 5.8192902 121.36694
-29.79187 5.6271133 123.95369
-28.555061 5.4870071 126.41997
-27.014021 5.449976 128.66675
-25.138885 5.5233135 130.68945
-23.065689 5.6600018 132.59178
-20.707886 5.8865023 134.32851
-17.7803 6.29212 135.73781
-14.278166 6.8741245 136.84232
-9.6641788 7.7979832 137.35396
-4.6213827 8.8417912 137.70839
-5.7778511 7.9428062 141.5892
-4.7210941 7.7401695 144.19458
-4.1197891 7.4012146 147.02048
-14.609793 24.014769 10.83802
-10.810457 24.64679 11.86467
0.67497444 28.270672 4.2220764
7.2424297 29.918808 2.5116043
-46.760689 6.9770393 75.469772
-46.758553 6.323307 79.572968
-45.142136 6.2770309 81.986595
-43.866058 6.1073656 84.727058
-42.290192 6.0493021 87.161346
-41.825317 5.5941868 90.62664
-41.136726 5.2268524 93.83522
-40.139832 4.9746666 96.726547
-38.963753 4.7895012 99.432877
-37.667671 4.6491098 102.01601
-36.402519 4.5006084 104.60939
-35.167889 4.3443451 107.21135
-33.958729 4.1822319 109.81656
-32.783546 4.0115719 112.43073
-31.638041 3.834013 115.04919
-30.524658 3.6489277 117.67268
-29.392395 3.4730892 120.26294
-28.122179 3.344677 122.73696
-26.755232 3.2493267 125.13068
-25.181265 3.2212162 127.3746
-23.403427 3.2577133 129.48108
-21.180271 3.432621 131.30438
-18.616589 3.7101688 132.93121
-15.537502 4.1416378 134.26967
-11.565575 4.8384171 135.11685
-5.3687277 6.1970844 134.7352
-20.432024 14.139132 43.443329
-21.226616 13.126089 49.045605
-45.838142 3.6621342 78.803535
-44.471436 3.5290394 81.472031
-42.790695 3.5080357 83.81768
-42.544842 2.9913712 87.53022
-40.58646 3.0708084 89.581642
-39.873451 2.7261257 92.779549
-38.766045 2.5203342 95.584358
-37.604279 2.3363476 98.317513
-36.297897 2.2034111 100.90573
-35.021942 2.0628529 103.50397
-33.770653 1.916748 106.10622
-32.554863 1.7617512 108.72015
-31.328962 1.6126404 111.30876
-29.949631 1.5145988 113.76389
-28.595507 1.4103069 116.22689
-27.273882 1.2976551 118.70204
-25.985119 1.1767387 121.18826
-24.684868 1.0613327 123.65343
-23.07523 1.0416584 125.89696
-21.064348 1.1430378 127.87339
-18.80723 1.3162823 129.70181
-15.929306 1.6705837 131.15793
-12.587101 2.1556606 132.36597
-7.3598824 3.1825104 132.49591
-17.604704 13.835149 25.627419
-20.246174 12.15975 33.674751
-22.755962 10.563262 41.352577
-23.075689 9.7553177 46.486656
-23.324154 8.9873486 51.43951
-44.664017 1.0783253 77.776154
-43.551186 0.86437416 80.708755
-41.391556 1.002924 82.593246
-40.796967 0.62270927 85.988022
-38.939995 0.66202927 88.157074
-38.231358 0.32877541 91.378845
-37.318031 0.067220688 94.37661
-36.181343 -0.1186161 97.147308
-34.921402 -0.26230812 99.790161
-33.62986 -0.39360046 102.38932
-32.150787 -0.46452904 104.81983
-30.690657 -0.54004478 107.25701
-29.257542 -0.62249184 109.70634
-27.854189 -0.71252251 112.16871
-26.478651 -0.80936432 114.64136
-25.136036 -0.91435242 117.12678
-24.187983 -1.1337452 119.88032
-22.745773 -1.2052746 122.26657
-20.495531 -1.0416851 124.09797
-18.221497 -0.87390518 125.93181
-15.447733 -0.56644058 127.46187
-12.283772 -0.15357971 128.77998
-7.4818707 0.71205711 129.13719
-19.684959 11.70694 12.539673
-19.749371 10.942784 17.970222
-20.951448 9.8043261 24.607834
-21.276922 8.9858913 30.087227
-22.681103 7.8214149 36.647114
-23.625654 6.8325672 42.543228
-23.649952 6.1658926 47.322929
-23.558277 5.5498562 51.889534
-42.338287 -1.1503696 75.577721
-42.212563 -1.6750031 79.529358
-40.494431 -1.6850739 81.859009
-38.975796 -1.7576122 84.377441
-38.139069 -2.0410156 87.522018
-36.57336 -2.0944901 89.964714
-35.857689 -2.4067593 93.158585
-34.537788 -2.5304604 95.785248
-33.153877 -2.6327667 98.341537
-31.618427 -2.6881866 100.75853
-30.106255 -2.7495098 103.18755
-28.622492 -2.8180828 105.63158
-27.168407 -2.8940964 108.0903
-25.59433 -2.9343281 110.44839
-25.293921 -3.3369656 113.749
-25.441662 -3.8595943 117.32694
-24.670811 -4.1160545 120.19051
-23.299156 -4.2012539 122.60725
-21.37785 -4.1334667 124.64186
-18.86179 -3.9040508 126.29124
-15.386481 -3.4179516 127.34812
-9.2527046 -2.2237511 126.78659
-22.656179 7.7676954 11.125282
-20.544525 7.7626381 13.937599
-21.349262 6.7991295 20.197304
-21.665632 6.0138817 25.744835
-21.58873 5.3709421 30.728287
-22.648937 4.377965 36.87619
-23.308521 3.5308895 42.442368
-23.071703 2.9805813 46.932472
-22.839788 2.4392776 51.34774
-23.36438 1.6760769 56.454323
-40.617493 -4.1582718 78.095947
-39.380234 -4.3153133 80.913803
-37.133366 -4.1681995 82.748154
-36.713047 -4.5638371 86.304718
-34.331627 -4.3777065 88.019554
-33.445431 -4.6290894 91.092659
-32.38932 -4.8271046 93.983719
-31.031595 -4.9355946 96.591118
-29.581692 -5.0161304 99.107292
-28.044268 -5.0707283 101.54153
-26.285587 -5.0629063 103.79235
-24.416769 -5.0248661 105.9584
-22.576584 -4.9952908 108.1511
-22.434839 -5.4263897 111.61103
-22.431892 -5.8876324 115.11755
-20.437811 -5.8106785 117.15263
-20.817673 -6.3624344 120.84364
-19.411493 -6.4370174 123.25719
-17.228584 -6.3083935 125.14796
-14.154997 -5.9520359 126.47932
-9.2222862 -5.1254539 126.68202
-22.483028 4.2040348 11.288132
-20.420427 4.1858463 14.143303
-20.767052 3.417696 19.840233
-20.862467 2.7423725 25.123657
-20.620529 2.1834145 29.918259
-21.301809 1.3563633 35.64732
-21.956005 0.5534935 41.218285
-21.580814 0.071237564 45.573627
-21.20866 -0.4027195 49.858467
-21.225285 -0.98080826 54.46664
-37.989906 -6.3737946 75.637634
-37.761856 -6.8159924 79.478851
-35.831261 -6.7685146 81.634674
-33.905174 -6.7231617 83.801598
-33.434082 -7.0827484 87.300423
-30.918285 -6.8730736 88.925903
-30.043556 -7.1148453 92.011337
-28.842524 -7.2641239 94.78466
-27.124289 -7.2721577 97.106079
-25.255465 -7.2400322 99.303703
-23.316725 -7.1900253 101.44997
-22.103615 -7.3304482 104.16823
-22.504412 -7.8866196 108.09618
-22.049435 -8.2136555 111.31314
-20.892776 -8.356514 113.97673
-19.183355 -8.3573513 116.22896
-16.867222 -8.2061138 118.06021
-13.672394 -7.8388653 119.31564
-3.9919767 -5.8780193 116.32728
-3.5383835 -6.2057648 119.54811
-21.397926 0.9362011 10.326561
-18.99016 1.0207462 12.773392
-18.679567 0.48633575 17.707512
-18.795511 -0.16171074 23.043755
-18.224436 -0.59874344 27.495316
-18.054487 -1.1418362 32.318199
-18.842609 -1.9454784 38.089272
-18.946594 -2.5420055 43.004856
-18.407194 -2.9486294 47.157242
-17.703728 -3.3024845 51.078289
-17.984394 -3.9178104 55.921021
-35.101387 -9.0653763 77.03241
-34.114563 -9.277792 80.127731
-31.943861 -9.1726513 82.088745
-30.576403 -9.2803364 84.797073
-27.378674 -8.9097576 85.859116
-26.660784 -9.1854229 89.136848
-25.479273 -9.3377132 91.978706
-23.934078 -9.3951702 94.495148
-22.180964 -9.3993893 96.833817
-22.170948 -9.8378544 100.56048
-22.495705 -10.351616 104.48509
-22.058043 -10.669983 107.75637
-21.146553 -10.867933 110.63026
-19.788452 -10.955019 113.15184
-17.645813 -10.853191 115.10404
-14.696278 -10.561747 116.51028
-9.4908085 -9.7445507 116.42717
-17.64628 -2.1903267 11.509552
-14.142145 -1.8097153 12.693924
-9.5672131 -1.1426373 12.711784
3.0632305 1.7015495 3.7562332
-31.816877 -11.67296 78.069931
-30.193623 -11.714312 80.5737
-27.496117 -11.488995 82.093346
-25.859594 -11.527992 84.593384
-24.680943 -11.67765 87.485939
-21.55872 -11.356159 88.699661
-21.563238 -11.787474 92.567909
-22.354301 -12.397764 97.010483
-22.487736 -12.843184 100.83605
-22.023088 -13.141771 104.12845
-21.079592 -13.324762 107.01151
-19.724033 -13.41033 109.56075
-17.913677 -13.39115 111.7666
-15.45113 -13.225317 113.5119
-11.604754 -12.75284 114.32069
-22.100964 -12.361032 68.968506
-26.728237 -13.886122 77.46582
-25.235954 -13.960592 80.137878
-22.688198 -13.790422 81.858261
-21.133568 -13.85018 84.471588
-22.245178 -14.512892 89.345108
-22.536791 -14.980024 93.426605
-22.353174 -15.333357 97.044754
-21.882444 -15.617319 100.37704
-21.012707 -15.809164 103.35305
-19.620575 -15.884394 105.90082
-17.761976 -15.857954 108.08961
-15.223675 -15.686811 109.78825
-11.225183 -15.209166 110.47574
-22.924679 -15.659369 69.88237
-20.913277 -15.625483 72.178703
-21.182726 -16.088842 76.55423
-21.563704 -16.568113 80.94558
-22.14259 -17.081347 85.423615
-22.347483 -17.506369 89.492546
-22.117184 -17.832579 93.124657
-21.460838 -18.064413 96.353127
-20.511118 -18.231688 99.308052
-19.339613 -18.350702 102.06167
-17.608467 -18.353964 104.36909
-14.992518 -18.178797 106.01752
-10.750676 -17.681368 106.51257
-22.73768 -18.702944 69.835587
-20.966457 -18.719603 72.344635
-21.202955 -19.14353 76.674271
-21.433022 -19.558714 80.916664
-21.370972 -19.908396 84.825806
-21.30402 -20.25107 88.66468
-20.857857 -20.513536 92.123688
-19.805168 -20.653646 95.040161
-18.346949 -20.713228 97.607948
-16.50993 -20.699415 99.869919
-13.993984 -20.557146 101.61757
-21.8571 -21.598295 69.13076
-19.246365 -21.454538 70.864647
-19.522532 -21.857061 75.24958
-19.788765 -22.250677 79.542542
-19.475275 -22.530165 83.25087
-18.942806 -22.764662 86.716194
-18.346748 -22.983587 90.081421
-17.108032 -23.082891 92.879868
-14.820165 -22.992865 94.823441
-10.864954 -22.608591 95.486633
-17.897713 -24.284708 69.730179
-14.11693 -23.952059 70.44548
-14.177139 -24.286928 74.645988
-15.308212 -24.798883 79.702972
-13.591243 -24.81983 82.226105
-13.497499 38.271053 193.76605
-14.804138 35.555996 191.11026
-14.888096 33.434052 193.77441
-13.163143 33.342735 195.61761
-13.736597 33.455284 190.04875
-13.87463 31.312834 192.74384
-12.351501 31.006247 194.67238
-9.2025394 32.437538 195.92865
-11.719976 30.412516 191.20772
-10.400679 29.882978 193.24205
-12.480549 28.319941 188.33244
-10.669039 28.31064 190.15677
-14.038111 25.388004 185.84167
-12.595259 25.004141 187.8251
-10.268242 25.53924 189.39856
-23.441372 25.797583 170.74893
-21.037163 26.424057 172.25208
-16.426115 29.450899 172.50958
-16.094114 23.847061 180.90167
-15.379848 22.694265 183.27402
-14.090902 22.161015 185.32996
-12.167732 22.287645 187.07098
-9.4486485 23.215969 188.45485
-24.867699 22.952208 168.26094
-24.35672 21.501558 170.90312
-22.021217 22.067184 172.40764
-18.062906 24.361462 172.99535
-18.019386 22.449026 175.84848
-17.490877 21.089153 178.37485
-16.546341 20.191519 180.63812
-15.251852 19.672821 182.69466
-13.570475 19.557873 184.54491
-11.393074 19.942835 186.15674
-8.2690144 21.258369 187.34811
-23.840223 24.898573 161.08122
-24.198669 22.431541 164.42517
-25.064568 19.470585 168.0029
-24.474709 18.149525 170.57535
-22.451797 18.386068 172.24326
-19.269983 19.837076 173.24747
-18.412859 18.835617 175.60754
-17.407124 18.009869 177.85251
-16.161963 17.446268 179.9435
-14.596882 17.217003 181.85263
-12.714491 17.308403 183.59787
-10.248627 17.97184 185.06808
-6.5416508 19.828827 185.98819
-25.209423 22.093214 158.52672
-25.250675 20.000544 161.69389
-24.564352 18.746325 164.30315
-24.448071 16.912592 167.23087
-24.10211 15.365107 169.94939
-22.43679 15.23184 171.81903
-19.058466 16.869968 172.68582
-17.99338 16.110012 174.91605
-16.770638 15.526327 177.03369
-15.353071 15.150074 179.02811
-13.589407 15.123592 180.83238
-11.482153 15.432945 182.46533
-8.7786579 16.311056 183.82254
-22.50407 56.472549 101.84124
-23.295221 52.488182 107.29141
-23.319759 49.598366 111.79363
-27.252748 41.872559 119.96277
-26.053846 40.732136 122.94808
-24.224178 40.395168 125.3056
-25.470409 36.355911 130.38667
-18.950338 41.67038 128.58188
-22.402672 26.028122 149.63242
-25.439026 20.552279 155.17372
-25.436466 18.515947 158.36609
-24.958614 17.03982 161.15623
-24.143854 15.9568 163.66748
-22.869972 15.380922 165.84346
-23.32873 13.023632 169.07729
-21.985483 12.566366 171.13683
-19.448616 13.327734 172.48105
-17.114717 13.868652 173.96762
-15.797142 13.391928 176.03197
-14.157093 13.241289 177.90797
-12.262173 13.340572 179.64737
-9.9134102 13.872019 181.16365
-6.665741 15.243032 182.2637
-24.237797 55.844917 94.252869
-24.435465 52.573479 99.291519
-24.404076 49.693764 103.93224
-32.617172 36.446075 116.92365
-33.765629 32.407444 122.23952
-34.225655 29.331524 126.70288
-33.393326 27.911301 129.80843
-32.077179 27.109837 132.40742
-30.41287 26.741518 134.66129
-28.450184 26.730871 136.64099
-25.916063 27.377724 138.13976
-22.799711 28.668518 139.19003
-25.030811 23.93471 144.53596
-25.515957 21.252836 148.34348
-25.062214 19.663933 151.34045
-25.217422 17.457747 154.71651
-24.873272 15.837738 157.65367
-24.120583 14.687012 160.24825
-23.222496 13.715046 162.70209
-21.996387 13.103155 164.90759
-22.000929 11.255913 167.85977
-21.074593 10.385756 170.17891
-19.171045 10.505108 171.89142
-15.860731 12.001816 172.80608
-14.414011 11.657307 174.80421
-12.673792 11.601971 176.63301
-10.545298 11.916237 178.25848
-7.8771286 12.730211 179.62378
-36.790985 40.782509 99.315063
-36.890305 37.804214 104.08736
-37.159927 34.695328 108.90296
-37.465797 31.632965 113.60624
-37.065369 29.549679 117.41431
-36.739601 27.434155 121.20047
-36.499825 25.273939 124.97372
-36.735565 22.601358 129.10954
-35.408646 21.86062 131.64809
-33.810234 21.4585 133.90425
-32.070534 21.230658 136.01663
-30.123758 21.245195 137.93964
-27.954002 21.510483 139.67545
-25.541679 22.03849 141.22412
-26.115906 19.275848 145.16876
-25.585346 17.780071 148.14597
-24.483215 16.933187 150.63336
-24.310204 15.125475 153.76328
-23.78701 13.727352 156.57338
-22.963242 12.672869 159.12198
-21.91004 11.877268 161.47655
-20.732952 11.225142 163.72032
-19.934481 10.21138 166.17702
-19.705105 8.6610394 168.94229
-18.192686 8.393837 170.89178
-15.707678 9.0679417 172.27415
-12.649672 10.271973 173.3627
-10.725248 10.383381 175.1049
-8.3757668 10.887785 176.62933
-4.8172379 12.49404 177.56049
-39.442848 44.905685 83.098808
-40.190948 40.807137 89.202484
-41.850609 35.609604 96.231842
-41.683098 33.002205 100.75829
-40.949348 31.215935 104.47824
-40.305882 29.36792 108.21114
-39.75742 27.454908 111.9577
-39.290024 25.497246 115.69783
-39.603256 22.635534 120.16868
-38.723373 21.304005 123.27455
-37.826271 20.0308 126.30015
-36.740677 19.015518 129.08304
-35.428154 18.292225 131.60474
-33.847965 17.895754 133.84773
-32.128273 17.66787 135.94839
-30.205587 17.672785 137.86285
-28.066055 17.916676 139.59467
-25.686676 18.415327 141.14041
-25.610119 16.426817 144.54128
-24.932409 15.126131 147.39342
-23.60417 14.539391 149.70255
-23.075916 13.139042 152.57184
-22.328213 11.996996 155.22876
-21.453503 11.010586 157.75252
-20.369659 10.256289 160.09735
-19.063297 9.7391644 162.26822
-17.620279 9.3672562 164.33298
-17.706537 7.5294647 167.31906
-16.703302 6.7716961 169.58911
-14.718536 6.9560146 171.26573
-11.695589 8.1040249 172.36948
-8.2085056 9.6548882 173.26392
-5.0956898 10.830894 174.41072
-46.284401 37.174446 82.459236
-43.827248 37.559364 84.258636
-40.616074 38.958534 85.078903
-44.418449 30.915211 95.020996
-44.038002 28.642431 99.285172
-43.304359 26.899014 102.99798
-42.376183 25.457775 106.38895
-42.48291 22.757286 110.89683
-41.470314 21.525347 114.01456
-40.504074 20.272907 117.12098
-39.583305 19.001932 120.21359
-38.710724 17.709995 123.29384
-37.819405 16.476318 126.29328
-36.745178 15.487932 129.05646
-35.427845 14.803326 131.54366
-33.514702 14.806321 133.45168
-31.418188 15.012425 135.196
-29.529396 14.98596 137.13002
-27.785925 14.803333 139.18556
-25.829254 14.852549 141.05814
-24.456144 14.286553 143.39841
-23.783001 13.007431 146.25732
-22.59399 12.289214 148.67363
-21.296366 11.698571 150.98056
-20.634815 10.485118 153.71565
-19.599968 9.6699085 156.14352
-18.463873 8.9728708 158.47073
-17.160261 8.4539385 160.6611
-15.594755 8.1971674 162.66537
-13.890131 8.0776415 164.57425
-14.443319 5.8517876 167.8246
-12.976952 5.5408506 169.8223
-10.552565 6.1119757 171.27075
-7.0183582 7.6736212 172.13641
-1.9131451 10.606187 172.23044
-48.794174 32.436588 81.314148
-47.014572 31.92448 83.988342
-47.153732 28.83453 89.247009
-46.215126 27.278511 92.903809
-45.637482 25.299591 96.938416
-45.722115 22.529331 101.69315
-44.579514 21.401642 104.80569
-43.483559 20.250032 107.91339
-42.43401 19.075827 111.01414
-41.432182 17.878407 114.10774
-40.477268 16.65979 117.19145
-39.565239 15.42562 120.25944
-38.154877 14.80496 122.75403
-36.774406 14.167372 125.24829
-35.678623 13.225874 127.98878
-34.256805 12.673072 130.37628
-32.672348 12.313771 132.58841
-30.938559 12.12591 134.65036
-29.048117 12.110614 136.56754
-26.98419 12.278994 138.33731
-24.699219 12.673665 139.93283
-22.234898 13.243172 141.40228
-22.18466 11.342847 144.77219
-21.027151 10.601607 147.22456
-19.335381 10.408625 149.25345
-18.501022 9.3793106 151.88593
-17.532457 8.5043612 154.38293
-16.22711 7.9724426 156.61748
-14.832537 7.5372715 158.77225
-13.254961 7.283329 160.79343
-11.374573 7.3153706 162.61786
-9.2762623 7.5461435 164.31302
-10.070747 5.1534901 167.69826
-8.0677929 5.3174257 169.41483
-4.9448586 6.4697037 170.52486
-50.671288 28.608009 79.351761
-49.652473 27.0835 83.09346
-48.033661 26.415096 85.906082
-46.820198 25.233143 89.230591
-47.721138 21.341471 95.280457
-46.737282 19.98336 98.689987
-45.641281 18.808683 101.88405
-44.512344 17.710819 104.97385
-43.426949 16.592918 108.05589
-42.390556 15.449273 111.13491
-40.96027 14.806026 113.71408
-39.429199 14.299067 116.15062
-38.405052 13.222765 119.09712
-37.334236 12.229635 121.94174
-36.174553 11.363485 124.64842
-34.952999 10.5893 127.25272
-33.572716 10.008902 129.66965
-32.04126 9.6064768 131.91986
-30.32963 9.4057627 133.98997
-28.380713 9.4587746 135.84421
-26.288048 9.659049 137.57916
-24.030859 10.022256 139.18765
-21.501575 10.650743 140.59441
-19.933372 10.306702 142.7771
-18.92222 9.4230452 145.36652
-17.391554 9.0655184 147.53575
-15.809147 8.7661762 149.6528
-14.875967 7.8576374 152.20869
-13.662523 7.2330904 154.53763
-12.054434 6.9888344 156.58197
-10.356222 6.832736 158.55899
-8.2768879 7.0256701 160.29373
-5.9615517 7.4259167 161.8942
-51.206032 23.746212 80.727112
-49.702988 22.943323 83.696526
-48.651817 21.574432 87.24781
-48.203194 19.472675 91.535042
-47.637733 17.586048 95.546196
-46.660339 16.273151 98.921448
-45.563339 15.147845 102.07368
-43.568726 15.144067 104.0752
-42.39119 14.165414 107.04013
-41.249397 13.173547 109.99345
-40.152107 12.158903 112.94386
-38.929008 11.317007 115.70458
-37.705841 10.498947 118.42184
-36.517113 9.6653957 121.13295
-35.359127 8.8210583 123.83301
-34.169685 8.0335588 126.46072
-32.748947 7.5136108 128.83109
-31.128714 7.2171898 130.99271
-29.384457 7.057229 133.02911
-27.510214 7.0345678 134.94473
-25.443207 7.2075338 136.69583
-23.135862 7.6162786 138.25665
-20.669323 8.1720085 139.70822
-17.818352 9.0888615 140.88467
-15.82036 9.1622267 142.74867
-14.478363 8.6096907 145.09982
-13.824043 7.4235907 147.92041
-13.054811 6.3719034 150.61041
-10.458622 7.0226679 152.01807
-8.5751686 7.0113487 153.92218
-6.5632801 7.1156235 155.74362
-3.9518051 7.7499666 157.19655
-51.472404 19.354633 81.691353
-49.647614 19.021908 84.137627
-48.832436 17.407928 87.967514
-48.151642 15.676376 91.882622
-46.617554 15.057048 94.573547
-45.558533 13.877226 97.836319
-44.419235 12.829916 100.93185
-43.20652 11.90102 103.87964
-41.966515 11.031481 106.74384
-40.649506 10.27582 109.47232
-39.364101 9.5061245 112.19542
-38.112518 8.7205334 114.91438
-36.891594 7.9231586 117.6247
-35.702438 7.1133251 120.32653
-34.422638 6.4225931 122.89652
-33.07687 5.8201017 125.36768
-31.658339 5.3094311 127.74007
-30.111534 4.9440613 129.96935
-28.426943 4.7280445 132.05742
-26.440586 4.8200684 133.87189
-24.337658 5.025156 135.59174
-22.088736 5.3678684 137.20052
-19.508862 6.0217247 138.55908
-16.684143 6.8932781 139.75583
-13.367575 8.2074776 140.61765
-9.5881062 9.9216433 141.19528
-11.50106 6.3564854 145.94159
-9.0978432 6.8003902 147.51564
-8.1410618 5.9333029 150.09204
-4.6883049 7.3051643 150.98233
2.5790691 12.000286 149.47981
-51.125214 15.8498 81.74247
-49.27668 15.573289 84.119308
-48.390656 14.103239 87.814011
-46.861 13.471145 90.551346
-46.204643 11.801878 94.397011
-45.175842 10.62778 97.669052
-43.875938 9.8074188 100.53634
-42.496979 9.1029062 103.26134
-41.150894 8.3816586 105.98544
-39.836296 7.6459713 108.70565
-38.554283 6.8952217 111.42205
-37.299675 6.1357079 114.12778
-35.953049 5.4962959 116.69608
-34.573463 4.9093494 119.19708
-33.21917 4.3117981 121.69305
-31.89189 3.7022724 124.1849
-30.523846 3.1503239 126.6075
-28.883499 2.8866444 128.75163
-27.094395 2.7774696 130.74933
-25.197329 2.7769108 132.64746
-23.129946 2.9412918 134.40077
-20.760509 3.3904896 135.91197
-18.230862 3.9800835 137.31514
-15.311728 4.9189949 138.44038
-11.931395 6.2608938 139.25688
-7.6677055 8.3763084 139.47885
-8.247263 6.0798178 143.28699
-6.6343555 5.7883492 145.45677
-3.031456 7.2553272 146.25685
-0.46225548 7.7895947 147.80528
-50.704063 12.491679 81.677856
-48.891647 12.192858 84.074348
-47.953484 10.837579 87.661575
-46.431343 10.225801 90.379517
-45.487366 8.9497747 93.817635
-44.31768 7.9752979 96.892067
-43.060402 7.1304588 99.800682
-41.685486 6.4434452 102.51846
-40.342354 5.7410955 105.23442
-39.027977 5.0273876 107.94383
-37.608673 4.4473333 110.49693
-36.172665 3.9012909 113.00024
-34.76165 3.344017 115.50052
-33.376289 2.7752705 117.99757
-32.017838 2.1942329 120.49172
-30.572973 1.7158203 122.8717
-29.040701 1.3369884 125.14445
-27.455891 1.0196037 127.34963
-25.737329 0.84018898 129.41888
-23.7733 0.90067101 131.26469
-21.599966 1.157877 132.93529
-19.329063 1.5000553 134.53735
-16.632256 2.2275314 135.81223
-13.671003 3.1790676 136.91357
-10.173231 4.5922108 137.64919
-5.5016422 7.0190792 137.57715
-5.2135887 5.5260429 140.78354
-0.84071159 7.6265697 141.05066
1.2121916 7.680892 142.99739
-50.279015 9.1858091 81.600845
-48.443176 8.9375935 83.933121
-47.127098 8.0787516 86.966881
-45.439613 7.681736 89.448395
-44.533035 6.3962116 92.926025
-43.461815 5.3365335 96.116592
-42.214684 4.5052834 99.02623
-40.879059 3.7959728 101.78047
-39.383736 3.2807121 104.30631
-37.89296 2.7752647 106.80798
-36.425709 2.2591763 109.30742
-34.984322 1.730463 111.80624
-33.57058 1.1877632 114.30537
-32.127586 0.68935394 116.74519
-30.55509 0.3337059 119.02898
-29.00412 -0.033855438 121.31507
-27.474972 -0.41314697 123.6028
-25.927996 -0.76557922 125.85464
-24.073854 -0.81748009 127.81258
-22.10347 -0.75907707 129.66617
-19.996332 -0.57547379 131.4061
-17.504908 -0.044782639 132.83614
-14.893265 0.58181763 134.19458
-11.686684 1.7248611 135.11508
-7.9132977 3.3413467 135.65549
-2.6392469 6.2294607 135.15331
-0.91909504 5.9865522 137.35928
-49.40567 6.4631901 80.865807
-47.76284 5.9991894 83.458344
-46.092453 5.5817575 85.983131
-45.033485 4.4782677 89.300705
-43.583221 3.848856 92.039246
-42.609787 2.7095585 95.344582
-41.192558 2.0887165 98.032547
-39.73251 1.5320396 100.632
-38.211346 1.0561638 103.12717
-36.71508 0.56770897 105.62321
-35.24445 0.066408157 108.1199
-33.800232 -0.44799232 110.61699
-32.177155 -0.76893425 112.89696
-30.575663 -1.1026573 115.18151
-28.992739 -1.4457302 117.46663
-27.431973 -1.8012257 119.75503
-25.782145 -2.0627842 121.94021
-24.001579 -2.1948185 123.99102
-22.185513 -2.2906017 126.00314
-20.296278 -2.3169346 127.94627
-17.981716 -1.9575214 129.52519
-15.512632 -1.4685726 130.9935
-12.660093 -0.65239334 132.17548
-9.4165249 0.48605537 133.0889
-5.2216434 2.419136 133.32716
-24.656689 34.53746 39.520302
-48.445564 3.8600559 80.00251
-47.032005 3.1476593 82.908585
-45.060997 3.0888062 85.002892
-44.413383 1.5557213 88.862411
-42.454224 1.5096283 90.918137
-41.309166 0.58385277 94.002754
-39.962921 -0.10027504 96.782288
-38.550201 -0.69479942 99.440575
-37.040436 -1.1718884 101.94987
-35.541222 -1.6463718 104.44316
-33.921886 -1.9867325 106.77557
-32.267403 -2.2828808 109.05051
-30.632532 -2.5903053 111.32945
-29.01762 -2.9088631 113.61176
-27.426325 -3.241621 115.9002
-27.212494 -4.8637409 119.51247
-26.248928 -5.7470074 122.32654
-24.733068 -6.1007023 124.58341
-22.8615 -6.1229286 126.50155
-20.568766 -5.7672768 128.04916
-17.649044 -4.865324 129.07925
-13.079599 -2.542429 128.78207
-10.090036 -1.6397552 129.88048
-6.2448797 -0.027587891 130.34805
-0.64303303 3.0299873 129.54408
-23.270489 34.557167 31.953941
-24.794657 29.903477 40.41143
-47.38736 1.3812981 78.995636
-46.264107 0.36283684 82.303383
-44.18531 0.43140602 84.235107
-42.976517 -0.44868851 87.331604
-41.040161 -0.52267838 89.426651
-39.933823 -1.4710121 92.56707
-38.731163 -2.291563 95.529716
-37.323124 -2.8779793 98.195557
-35.786186 -3.3175011 100.67522
-34.080841 -3.5768528 102.93684
-32.394447 -3.8477306 105.20424
-30.729589 -4.1321812 107.47922
-29.083834 -4.4273186 109.758
-27.363794 -4.6444969 111.94386
-26.675501 -5.8180923 115.14939
-26.098431 -7.0639343 118.39865
-24.811144 -7.6327477 120.90598
-23.214569 -7.9097614 123.09673
-21.40959 -7.995203 125.08496
-19.371458 -7.8744297 126.86405
-16.931259 -7.4087868 128.3055
-13.770159 -6.3381023 129.1701
-6.5377655 -1.8539944 126.78458
-1.354455 0.81521034 126.24274
-19.534365 40.316734 13.837173
-23.543556 32.588753 26.801308
-23.330397 29.957283 32.794083
-23.397621 27.093443 39.016853
-45.771179 -0.47076225 77.183838
-45.09198 -1.9573593 81.12812
-43.294121 -2.1933002 83.444191
-41.478333 -2.4031162 85.72081
-40.577492 -3.5632915 89.169792
-38.553299 -3.5322647 91.125839
-37.393776 -4.3801327 94.147583
-35.846992 -4.8163052 96.652344
-34.242401 -5.1832104 99.06279
-32.562103 -5.4662991 101.36485
-30.865671 -5.7262096 103.63213
-29.187468 -5.9963894 105.90374
-27.322823 -6.0851402 107.96332
-25.423542 -6.1396275 109.98227
-24.267324 -6.8693504 112.74121
-23.486412 -7.9178715 115.82504
-22.054089 -8.3617611 118.2323
-20.186935 -8.4134331 120.21294
-17.92985 -8.1261787 121.83912
-15.221733 -7.4600735 123.08424
-14.200396 -8.2355366 125.80875
-11.954441 -7.9698792 127.47124
-7.2602577 -5.6896763 127.1573
-23.385258 34.070427 14.222168
-22.990578 31.557613 20.269463
-22.814251 28.878929 26.471527
-21.850327 27.167252 31.285896
-21.177422 25.189606 36.407555
-20.379711 23.408865 41.211063
-43.721321 -4.0662098 79.675079
-42.290092 -4.6847572 82.497726
-40.160538 -4.5621624 84.351501
-39.082241 -5.5151157 87.573486
-36.912308 -5.3434734 89.357307
-35.601254 -6.0275211 92.207138
-34.246803 -6.6499424 94.961731
-32.641212 -7.0132027 97.384483
-31.041811 -7.3724155 99.791939
-29.270002 -7.5603657 101.98654
-27.32564 -7.5837555 103.98352
-25.391243 -7.6156349 105.98963
-24.055042 -8.1854229 108.60758
-23.974899 -9.8573666 112.44879
-22.752802 -10.48456 115.08177
-21.049891 -10.679295 117.22273
-18.958361 -10.536482 118.99301
-16.445854 -10.041121 120.39119
-13.339111 -9.0611591 121.2935
-8.4242716 -6.6116734 120.69818
-8.2611637 -8.0968513 124.20222
-22.91902 29.939554 14.403915
-21.903646 28.20981 19.405457
-21.137289 26.260473 24.664047
-19.73908 25.061745 28.824692
-18.128962 24.12796 32.586708
-16.912151 22.807787 36.845833
-41.948837 -5.7684078 77.662521
-41.120483 -6.9982548 81.325043
-39.209679 -7.099577 83.469345
-37.228397 -7.1278744 85.515839
-36.097435 -7.9886684 88.630486
-33.791939 -7.6903458 90.248497
-32.455082 -8.3231182 93.043571
-31.029541 -8.8551655 95.695206
-29.242735 -9.0379353 97.903206
-27.373558 -9.1404991 100.00874
-25.407764 -9.1531792 102.00375
-23.454205 -9.176405 104.01083
-24.089224 -11.474539 108.67183
-23.190371 -12.383013 111.66425
-21.78878 -12.837862 114.11402
-19.929808 -12.894304 116.10307
-17.624165 -12.575968 117.67511
-14.827882 -11.860121 118.82174
-11.038963 -10.35141 119.13385
-5.5610046 -7.5163574 118.07848
-21.985771 26.390339 13.811577
-19.68288 26.126783 16.736801
-18.442368 24.72608 21.284866
-16.909859 23.679571 25.288536
-14.685257 23.388742 28.199883
-11.56109 24.032257 29.804497
-24.928833 7.9463911 54.421005
-39.43541 -8.7976818 79.452942
-37.884834 -9.2584209 82.091469
-35.745293 -9.1349277 83.939415
-34.123356 -9.5095348 86.445915
-32.810974 -10.165266 89.306709
-30.537817 -9.9102154 90.977608
-28.936613 -10.277899 93.447029
-27.221983 -10.533117 95.764328
-25.357943 -10.648289 97.90033
-23.481609 -10.74962 100.01594
-24.204044 -13.106417 104.8587
-23.445583 -14.132647 108.04044
-22.137203 -14.6672 110.6111
-20.458773 -14.878912 112.78944
-18.452812 -14.814829 114.64409
-16.074995 -14.448847 116.15769
-12.897324 -13.446756 116.96909
0.47373199 -4.3474083 108.85345
-20.238049 23.75643 11.889328
-17.561644 23.893484 14.234039
-14.534435 24.394539 16.048592
-11.465084 24.923429 17.837921
-24.514378 9.0329523 43.246681
-25.306334 5.9094658 50.01416
-25.535208 3.4353638 55.773094
-36.297295 -9.2106075 75.616714
-36.263451 -11.141249 80.32309
-34.532742 -11.413458 82.712601
-32.228069 -11.14337 84.363602
-30.894743 -11.772936 87.220596
-28.039753 -11.006845 88.221504
-26.617523 -11.541771 90.938354
-25.020077 -11.907904 93.421913
-23.304766 -12.161837 95.751793
-24.286011 -14.724596 100.97292
-23.702698 -15.895319 104.38961
-22.487175 -16.50725 107.08614
-20.886112 -16.785246 109.36
-18.956436 -16.788164 111.29673
-16.669312 -16.502848 112.89333
-13.874733 -15.820265 114.03593
-9.8934841 -14.220121 114.14453
-14.226492 25.607126 3.0670471
-11.607103 25.604494 5.6929703
-11.87532 22.65003 12.755211
-23.603313 8.2543125 36.745033
-25.387278 4.1534538 45.135887
-25.112871 2.1852608 50.293655
-24.588963 0.51540565 54.960716
-24.722036 -1.7281094 60.394123
-34.089592 -12.53079 77.829559
-33.035984 -13.432753 81.121056
-30.887098 -13.315256 82.978424
-28.339088 -12.84371 84.356453
-26.950483 -13.408747 87.147003
-24.062931 -12.652864 88.159103
-22.540188 -13.090136 90.766777
-24.283512 -16.286547 96.954208
-23.771334 -17.511744 100.50627
-22.783175 -18.312208 103.4805
-21.316784 -18.702166 105.91443
-19.463865 -18.770845 107.93775
-17.264116 -18.561701 109.61858
-14.597361 -17.990328 110.86767
-11.036331 -16.737734 111.32084
-23.216824 6.9105349 30.915977
-24.523293 3.303194 38.787682
-24.675241 0.91912079 44.701523
-24.020964 -0.62749481 49.290859
-23.088749 -1.8683338 53.380131
-22.688793 -3.5643826 58.09536
-22.181446 -5.1142464 62.546032
-30.474489 -14.512995 78.166229
-29.085855 -15.088255 81.018509
-26.947668 -14.993952 82.916756
-24.382671 -14.534933 84.313881
-22.930965 -15.033346 87.033684
-24.280396 -17.86545 92.889984
-23.752466 -19.071512 96.486519
-22.745377 -19.855497 99.488297
-21.429977 -20.371134 102.11562
-19.822119 -20.6411 104.41036
-17.791162 -20.571821 106.26505
-15.267315 -20.121508 107.64316
-11.983725 -19.099237 108.32579
13.258669 -1.4568901 88.680725
-23.14135 10.088078 12.796104
-20.265871 10.492725 14.61554
-23.488094 4.8879585 26.020622
-23.234894 2.8217907 31.666115
-23.442131 0.37964821 37.832359
-23.284071 -1.64604 43.277042
-22.330135 -2.8754044 47.439377
-21.122946 -3.8380013 51.158745
-19.953972 -4.8072472 54.857262
-19.137024 -6.0608597 58.945889
-18.375359 -7.3277111 63.013775
-26.39922 -16.127684 77.956047
-25.091515 -16.75923 80.911957
-22.812477 -16.559542 82.669846
-23.86908 -19.124437 88.307098
-23.704998 -20.625727 92.389236
-22.707159 -21.416384 95.450546
-21.370771 -21.917562 98.094902
-19.753796 -22.185709 100.41168
-17.827105 -22.206896 102.39367
-15.565016 -21.970533 104.03889
-12.766524 -21.333811 105.17567
8.0408726 -7.2417278 89.205597
-23.476736 5.4959564 14.265915
-22.797142 3.7832603 19.531693
-22.795696 1.4752979 25.713295
-22.030872 -0.042764664 30.543121
-21.494381 -1.7267323 35.588863
-21.016418 -3.4139843 40.584892
-20.083954 -4.6424809 44.806953
-18.554119 -5.3053303 48.111748
-16.92177 -5.8596001 51.228294
-14.964622 -6.1181831 53.877857
-24.690983 -16.305925 71.431801
-22.270473 -16.025877 73.102402
-23.027391 -18.382738 78.656586
-23.347317 -20.320059 83.52433
-23.036335 -21.698092 87.52536
-22.354664 -22.745588 91.011955
-21.310274 -23.481482 94.026894
-19.685272 -23.748659 96.36734
-17.732189 -23.758009 98.345459
-15.432978 -23.505434 99.96833
-12.56278 -22.832529 101.03667
10.23122 -7.473896 82.703979
-22.954094 1.8243294 14.309418
-21.735313 0.6818943 18.667984
-21.15765 -1.0215549 23.927277
-20.047832 -2.1856956 28.236534
-18.696867 -3.0973301 32.092972
-17.743521 -4.3355198 36.449261
-16.720215 -5.476366 40.607975
-15.131477 -6.0962448 43.900345
-12.627312 -5.9193363 45.91832
-24.617579 -19.651934 71.669678
-22.766476 -19.83156 74.014458
-22.71653 -21.457502 78.53302
-22.376102 -22.809553 82.58931
-21.542866 -23.739649 85.978767
-20.485504 -24.472227 89.049484
-19.238655 -25.041265 91.860245
-17.636148 -25.327478 94.249352
-15.29872 -25.058519 95.847595
-12.309644 -24.316137 96.796356
-21.977509 -1.3758678 13.601601
-19.538401 -1.3594856 15.994461
-18.553045 -2.6581497 20.644211
-17.290432 -3.6707211 24.763924
-15.344834 -4.0539341 27.790833
-12.808274 -3.9150105 29.935387
-23.924641 -22.448442 71.113968
-21.689659 -22.312746 72.966042
-21.17506 -23.529669 76.914383
-20.598913 -24.667059 80.699844
-19.497902 -25.374086 83.795853
-18.043863 -25.796843 86.442757
-16.330372 -26.015757 88.773949
-14.218974 -25.936632 90.662094
-11.129321 -25.148996 91.529305
-20.086584 -3.7248631 11.401848
-17.792723 -3.8454285 14.04509
-14.428503 -3.0216713 15.022171
-11.188356 -2.3300037 16.257896
-0.032400131 5.0927067 5.9035339
5.3588142 7.4544353 4.4506683
-22.561195 -24.697496 69.704033
-20.652897 -24.819841 71.966873
-18.683495 -24.892351 74.146408
-17.69541 -25.701929 77.48056
-16.551088 -26.374552 80.574089
-14.698137 -26.51005 82.81971
-11.709184 -25.818872 83.805679
-10.340181 -1.4022026 3.0779037
-12.131979 -5.0830002 12.24485
-4.3113194 -0.56941032 6.6273041
0.51510811 1.3305912 5.7969513
5.9425774 3.6668243 4.2688141
-12.005891 -19.949648 56.632935
-18.998852 -26.856157 70.202545
-16.486517 -26.528337 71.738861
-13.095957 -25.565699 72.263374
-9.0896111 -24.182299 72.150963
-0.28283119 -1.3994961 1.3161621
2.2880573 -1.4002209 3.8892517
6.5884075 -0.02831459 3.991684
-9.6582384 -23.292883 58.932964
-9.9990664 38.271683 195.994
-7.1145678 36.802444 196.12112
-5.0875053 37.299118 194.95247
-9.5767393 34.283958 196.04794
-7.1254969 33.772285 195.5585
-5.1028833 34.239273 194.40799
-10.0866 32.401665 194.71748
-7.681201 32.003204 194.15714
-5.7118206 32.59005 192.91562
-11.273005 31.971601 192.36789
-8.8146486 31.50514 191.85431
-6.7039232 31.802019 190.80307
-9.7004023 30.420256 189.93045
-6.831543 29.043032 190.08508
-4.7579002 29.413584 188.97653
-9.8701162 27.777216 189.12688
-7.0677242 26.55028 189.19507
-4.8494501 26.571379 188.34406
-3.1660919 27.839136 186.55667
-10.212802 25.52062 188.05447
-7.4025354 24.289362 188.14716
-5.0919666 24.095781 187.46104
-3.1365261 24.702696 186.16273
-1.9177647 27.083914 183.48862
-10.64885 23.4671 186.83597
-7.8204641 22.215937 186.96481
-5.4654655 21.92481 186.35855
-3.3710003 22.201517 185.31018
-1.6322374 23.318678 183.59622
-11.173587 21.596918 185.47699
-8.318944 20.315191 185.65068
-5.9025078 19.898497 185.14908
-3.7633972 20.068861 184.18164
-1.8436785 20.748323 182.80232
-0.26463223 22.269388 180.73389
-1.7910671 31.407381 172.43671
0.84670162 30.739548 172.09587
-11.827399 19.980963 183.91132
-8.8948126 18.571608 184.2085
-6.4333239 18.072966 183.77975
-4.2275515 18.098879 182.927
-2.2159281 18.559664 181.71606
-0.44962692 19.61384 180.00899
0.98649693 21.520533 177.58081
1.1799841 26.605192 172.46896
3.7292061 26.057688 172.05573
-12.599778 18.585203 182.15338
-9.563653 17.008169 182.61098
-7.056139 16.433893 182.25195
-4.78965 16.338655 181.4985
-2.7372789 16.706823 180.35635
-0.85176373 17.474768 178.87218
0.80382729 18.827951 176.88194
2.1494808 21.017298 174.16168
3.9440899 22.238226 172.25317
5.9484854 23.004591 170.72601
-13.488875 17.393972 180.20401
-10.364842 15.692663 180.79092
-7.760272 14.949389 180.58249
-5.4354134 14.747007 179.91991
-3.3080978 14.957365 178.90485
-1.3751602 15.611647 177.50389
0.40587521 16.655024 175.75777
1.9612103 18.300314 173.47418
3.9943953 18.890062 172.10233
5.9576597 19.698099 170.5311
-21.071808 24.300493 172.18384
-14.693608 16.770876 177.73962
-11.273353 14.562756 178.78778
-8.5964003 13.711643 178.68236
-6.2222996 13.432238 178.08707
-4.0430307 13.54748 177.14832
-2.03195 14.035664 175.87897
-0.17539692 14.901552 174.26892
1.5961485 16.020988 172.42313
3.8687506 16.015537 171.57675
5.712636 17.072676 169.76959
-20.578688 20.396883 172.38904
-16.211388 16.679546 174.75879
-12.31198 13.650892 176.56158
-9.5318956 12.642719 176.60599
-7.0889063 12.255022 176.10791
-4.8520212 12.271366 175.25153
-2.7856836 12.652767 174.0656
-0.90803719 13.473579 172.47675
1.4873314 13.170776 171.905
3.5489998 13.631584 170.63519
5.1100035 15.341305 168.2068
4.4892206 22.66725 160.54219
-20.373789 17.069624 172.1521
-17.311775 15.760597 172.44536
-13.67438 13.305935 173.7843
-10.652606 11.897219 174.20239
-8.0999613 11.334705 173.86465
-5.831214 11.316256 173.03427
-3.4684954 11.099894 172.3866
-1.0649891 10.781961 171.83546
1.0879183 11.002171 170.78574
2.931819 11.94875 169.05208
3.7507963 15.402355 164.94225
4.4427347 19.415478 160.26396
3.7736502 27.207283 151.9353
-20.533947 14.423777 171.34598
-17.151836 12.55088 172.18442
-14.206435 11.378498 172.39868
-11.416385 10.434277 172.41458
-8.7074423 9.5937405 172.34425
-6.1648607 9.0359955 172.01823
-3.7810869 8.7710247 171.42245
-1.5709162 8.8573456 170.49664
0.34867001 9.5843525 168.95917
0.48423672 14.387693 163.50565
2.1515322 15.94232 161.13185
3.2223492 19.048952 157.23607
3.8010216 23.616657 151.88144
5.7378244 24.998606 149.60083
-17.693764 10.615427 170.7802
-14.571519 9.1481514 171.2955
-11.757726 8.1710339 171.36322
-9.1785364 7.5850143 171.06952
-6.7666445 7.2923946 170.50139
-4.4910536 7.2569847 169.68883
-2.5792322 7.9750118 168.14691
-2.326158 12.293537 163.08974
-0.46367741 13.332951 161.19702
1.1101789 15.103327 158.5726
2.5235987 17.377953 155.42892
3.8279276 20.085705 151.82846
5.8172274 21.252926 149.74133
7.5178423 23.275873 146.77917
8.7452745 26.76771 142.30655
-15.788203 8.4313641 168.74664
-12.835507 7.2550583 169.02048
-10.298923 6.7892494 168.61624
-7.994525 6.74226 167.80734
-6.9952211 9.2719307 164.46283
-4.6846037 9.2852859 163.58075
-2.5622816 9.6951542 162.3038
-0.53028679 10.32757 160.79944
1.0800924 11.948021 158.2932
2.549222 14.009085 155.32266
3.8548956 16.611769 151.77754
5.7861681 17.848927 149.60098
7.5412741 19.638725 146.84167
9.1974936 21.839924 143.63646
-19.963158 12.796068 161.14633
-16.274696 10.504158 162.51263
-13.35419 9.4902382 162.63385
-10.700358 8.9203682 162.32239
-8.1919174 8.5986824 161.76772
-5.9279404 8.7456722 160.74249
-3.7111254 8.9989834 159.60742
-1.6682062 9.6383839 158.0744
0.29061604 10.505255 156.30003
2.0990238 11.773945 154.10007
3.6330214 13.779472 151.11908
5.5133009 15.088341 148.84396
7.2431879 16.879505 146.04669
9.100234 18.478943 143.43172
10.724704 20.851013 139.97711
-18.478144 11.395481 158.15652
-15.113806 9.6858253 158.99081
-12.233489 8.7724972 159.03043
-9.7115107 8.4867115 158.43512
-7.3161001 8.4314175 157.60474
-5.0724039 8.6789322 156.46002
-2.9751925 9.24753 154.97665
-0.9849205 10.083979 153.20502
0.80811882 11.416864 150.89879
2.977952 11.975849 149.39996
4.9135609 13.135803 147.25226
6.6836042 14.795275 144.55429
8.7285089 15.877546 142.46083
10.491321 17.807335 139.43422
11.31437 22.537853 133.32669
-23.93762 17.752954 148.01392
-17.511555 10.918379 154.16702
-14.237141 9.4029045 154.83789
-11.453451 8.7134647 154.65788
-8.9452772 8.5114002 153.97058
-6.6647348 8.7471008 152.82018
-4.3904634 9.0106297 151.63727
-2.0397072 9.1302662 150.60594
0.16234589 9.5822258 149.21404
2.2548609 10.313255 147.51358
4.0850458 11.711374 145.07571
6.2159891 12.485268 143.30714
8.1663961 13.77573 140.95908
9.2755194 17.382399 136.02464
11.193879 19.080576 133.1778
6.5877771 39.604015 109.19239
-29.734673 24.351488 137.22032
-20.505962 13.052325 148.22923
